ply
format ascii 1.0
element vertex 328
property float x
property float y
property float z
property uchar red
property uchar green
property uchar blue
end_header
-2.5172832012176514 2.722646474838257 10.73352336883545 255 255 255
-2.1515514850616455 2.755859136581421 10.55247688293457 255 255 255
-1.889792799949646 2.782623291015625 9.42292594909668 255 255 255
-1.8455531597137451 2.80517840385437 9.464323043823242 255 255 255
-1.7470024824142456 2.849100112915039 9.259066581726074 255 255 255
-1.8881893157958984 2.8245997428894043 10.11174201965332 255 255 255
-1.8582524061203003 2.825906753540039 9.992855072021484 255 255 255
-1.921101689338684 2.7919325828552246 10.385163307189941 255 255 255
-1.921101689338684 2.7919325828552246 10.385163307189941 255 255 255
-1.7000007629394531 2.836920738220215 9.274992942810059 255 255 255
-1.7757089138031006 2.810044765472412 9.783710479736328 255 255 255
-1.8394111394882202 2.804419755935669 10.205981254577637 255 255 255
-1.8250552415847778 2.8296923637390137 10.168327331542969 255 255 255
-1.9289355278015137 2.8592355251312256 10.768778800964355 255 255 255
-1.785908579826355 2.819467067718506 10.155810356140137 255 255 255
-1.7596192359924316 2.8138396739959717 10.258402824401855 255 255 255
-1.702036738395691 2.80391001701355 10.140878677368164 255 255 255
-1.8805512189865112 2.7468080520629883 11.374849319458008 255 255 255
-1.737329125404358 2.7602851390838623 10.570579528808594 255 255 255
-1.480181336402893 2.8080828189849854 9.00919246673584 255 255 255
-1.6851264238357544 2.7590506076812744 10.424609184265137 255 255 255
-1.474340558052063 2.7954907417297363 9.17666244506836 255 255 255
-1.478479266166687 2.7750749588012695 9.226913452148438 255 255 255
-1.630985140800476 2.7958314418792725 10.178850173950195 255 255 255
-1.8367559909820557 2.754922389984131 11.481337547302246 255 255 255
-1.419526219367981 2.8562099933624268 8.959358215332031 255 255 255
-1.829319953918457 2.715416431427002 11.614118576049805 255 255 255
-1.4130949974060059 2.8689897060394287 8.977007865905762 255 255 255
-1.4827089309692383 2.752598524093628 9.505504608154297 255 255 255
-1.6200969219207764 2.7572073936462402 10.39013671875 255 255 255
-1.5846922397613525 2.8340845108032227 10.1861572265625 255 255 255
-1.5793606042861938 2.7805113792419434 10.212265014648438 255 255 255
-1.7413424253463745 2.7778091430664062 11.307010650634766 255 255 255
-1.4448951482772827 2.7980170249938965 9.454082489013672 255 255 255
-1.577185869216919 2.7774603366851807 10.34646224975586 255 255 255
-1.577185869216919 2.7774603366851807 10.34646224975586 255 255 255
-1.4158562421798706 2.803839921951294 9.348365783691406 255 255 255
-1.5170542001724243 2.814218044281006 10.083795547485352 255 255 255
-1.3793981075286865 2.8367862701416016 9.401873588562012 255 255 255
-1.4834871292114258 2.8324759006500244 10.148761749267578 255 255 255
-1.3131461143493652 2.8452069759368896 9.089607238769531 255 255 255
-1.4663995504379272 2.811192750930786 10.213899612426758 255 255 255
-1.5703059434890747 2.7603073120117188 10.983414649963379 255 255 255
-1.5703059434890747 2.7603073120117188 10.983414649963379 255 255 255
-1.6345263719558716 2.7458760738372803 11.478010177612305 255 255 255
-1.437954306602478 2.845417022705078 10.169655799865723 255 255 255
-1.4157205820083618 2.838104009628296 10.032626152038574 255 255 255
-1.4647212028503418 2.778606414794922 10.495141983032227 255 255 255
-1.3057085275650024 2.854722738265991 9.372314453125 255 255 255
-1.5138044357299805 2.7396433353424072 10.92070198059082 255 255 255
-1.2446503639221191 2.927637815475464 8.981653213500977 255 255 255
-1.562448263168335 2.7732367515563965 11.38465690612793 255 255 255
-1.3233392238616943 2.8084003925323486 9.650547981262207 255 255 255
-1.5771015882492065 2.75439715385437 11.524399757385254 255 255 255
-1.5771015882492065 2.75439715385437 11.524399757385254 255 255 255
-1.2247755527496338 2.930911064147949 8.984943389892578 255 255 255
-1.4073371887207031 2.80582857131958 10.405725479125977 255 255 255
-1.2190982103347778 2.923520565032959 9.025763511657715 255 255 255
-1.5889474153518677 2.714445114135742 11.8012113571167 255 255 255
-1.2954041957855225 2.818690776824951 9.676312446594238 255 255 255
-1.5855144262313843 2.6981704235076904 11.889448165893555 255 255 255
-1.2782912254333496 2.826953649520874 9.666543960571289 255 255 255
-1.3419522047042847 2.8823628425598145 10.150703430175781 255 255 255
-1.2178888320922852 2.8885889053344727 9.214790344238281 255 255 255
-1.2492334842681885 2.8538308143615723 9.63149356842041 255 255 255
-1.1811777353286743 2.8680813312530518 9.208017349243164 255 255 255
-1.304971694946289 2.8794851303100586 10.221475601196289 255 255 255
-1.4054088592529297 2.7978010177612305 11.103652000427246 255 255 255
-1.2964601516723633 2.8466415405273438 10.2472505569458 255 255 255
-1.2725123167037964 2.8962759971618652 10.133626937866211 255 255 255
-1.163354516029358 2.8918039798736572 9.278149604797363 255 255 255
-1.4403742551803589 2.7323522567749023 11.490474700927734 255 255 255
-1.2647438049316406 2.876734972000122 10.203191757202148 255 255 255
-1.2529215812683105 2.8412342071533203 10.235918045043945 255 255 255
-1.2510985136032104 2.828719139099121 10.33234977722168 255 255 255
-1.1383575201034546 2.8939096927642822 9.472758293151855 255 255 255
-1.5551683902740479 2.8507723808288574 13.491604804992676 255 255 255
-1.3854529857635498 2.7910900115966797 12.03591537475586 255 255 255
-1.3854529857635498 2.7910900115966797 12.03591537475586 255 255 255
-1.0958460569381714 2.831805944442749 9.749039649963379 255 255 255
-1.157533049583435 2.7936601638793945 10.317122459411621 255 255 255
-1.2339999675750732 2.7855567932128906 11.140097618103027 255 255 255
-1.2818635702133179 2.7727251052856445 11.886165618896484 255 255 255
-1.2156245708465576 2.794874906539917 11.279624938964844 255 255 255
-1.0202651023864746 2.8729631900787354 9.527294158935547 255 255 255
-1.0192214250564575 2.8733582496643066 9.661892890930176 255 255 255
-1.183863878250122 2.8045151233673096 11.257437705993652 255 255 255
-1.0708831548690796 2.8586580753326416 10.195282936096191 255 255 255
-1.0694429874420166 2.8487775325775146 10.240313529968262 255 255 255
-1.1334625482559204 2.8200855255126953 10.903977394104004 255 255 255
-1.1737165451049805 2.7971293926239014 11.297679901123047 255 255 255
-1.1941436529159546 2.7721474170684814 11.539780616760254 255 255 255
-1.0602712631225586 2.88362455368042 10.830068588256836 255 255 255
-1.2794040441513062 -0.6843433976173401 13.245887756347656 255 255 255
-1.2805945873260498 -0.6314117312431335 13.259688377380371 255 255 255
-1.1457730531692505 2.8017501831054688 11.941540718078613 255 255 255
-0.9947791695594788 2.905203104019165 10.436020851135254 255 255 255
-1.0587077140808105 2.823073148727417 11.171892166137695 255 255 255
-1.0314102172851562 2.8509507179260254 10.951488494873047 255 255 255
-1.0829482078552246 2.814143419265747 11.608814239501953 255 255 255
-1.0403867959976196 2.829449415206909 11.166542053222656 255 255 255
-0.9986250400543213 2.8548331260681152 10.925976753234863 255 255 255
-1.0290895700454712 2.8158278465270996 11.62564468383789 255 255 255
-0.9608744382858276 2.853031873703003 10.878969192504883 255 255 255
-0.9536769390106201 2.857491970062256 10.813170433044434 255 255 255
-0.847757875919342 2.884061336517334 9.718989372253418 255 255 255
-0.9457624554634094 2.8599836826324463 10.927874565124512 255 255 255
-0.9630120396614075 2.8519468307495117 11.299911499023438 255 255 255
-0.767607569694519 2.862661361694336 9.105961799621582 255 255 255
-1.0779564380645752 -0.7549092173576355 14.00879192352295 255 255 255
-1.045540690422058 -0.8821702599525452 14.111899375915527 255 255 255
-1.0330591201782227 -2.0943615436553955 14.968855857849121 255 255 255
-0.7946717143058777 2.849684953689575 11.904610633850098 255 255 255
-0.9637935161590576 -2.5133347511291504 15.651739120483398 255 255 255
-0.9424201250076294 -2.4791014194488525 15.558598518371582 255 255 255
-0.7517676949501038 2.8514363765716553 12.746626853942871 255 255 255
-0.8666903376579285 -2.1024363040924072 14.875296592712402 255 255 255
-0.9014420509338379 -2.4321305751800537 15.527898788452148 255 255 255
-0.8766669034957886 -2.431671619415283 15.520930290222168 255 255 255
-0.5606556534767151 2.995985507965088 10.127135276794434 255 255 255
-0.8627986907958984 -2.5316524505615234 15.60317325592041 255 255 255
-0.8762110471725464 2.8676440715789795 15.871561050415039 255 255 255
-0.8904898762702942 -3.020878553390503 16.192716598510742 255 255 255
-0.8904898762702942 -3.020878553390503 16.192716598510742 255 255 255
-0.6684114933013916 2.9485793113708496 12.287171363830566 255 255 255
-0.6363072395324707 2.998680591583252 11.743453979492188 255 255 255
-0.8663991093635559 -2.8422136306762695 16.237201690673828 255 255 255
-0.8392853140830994 -2.848926305770874 15.948230743408203 255 255 255
-0.8431811928749084 -2.744839906692505 16.04935646057129 255 255 255
-0.6399757862091064 3.0127227306365967 12.214784622192383 255 255 255
-0.5772610902786255 2.982032299041748 11.343817710876465 255 255 255
-0.6452930569648743 2.893697738647461 12.765894889831543 255 255 255
-0.6384837627410889 2.8620567321777344 12.859858512878418 255 255 255
-0.5668371915817261 3.0046544075012207 11.793222427368164 255 255 255
-0.6120258569717407 2.916266679763794 12.751605033874512 255 255 255
-0.6116812229156494 2.8717994689941406 12.807259559631348 255 255 255
-0.5982905030250549 2.961493968963623 12.649840354919434 255 255 255
-0.5866485238075256 2.9771578311920166 12.406200408935547 255 255 255
-0.5783210396766663 2.979248046875 12.628304481506348 255 255 255
-0.7186011075973511 -2.5504119396209717 15.738509178161621 255 255 255
-0.5567041039466858 2.981354236602783 12.350717544555664 255 255 255
-0.5335078239440918 3.015754222869873 12.291738510131836 255 255 255
-0.5335078239440918 3.015754222869873 12.291738510131836 255 255 255
-0.6468824148178101 2.8500781059265137 14.943681716918945 255 255 255
-0.5088520646095276 3.008131504058838 11.89343547821045 255 255 255
-0.5365009307861328 2.9523797035217285 12.77668571472168 255 255 255
-0.5248157382011414 2.922640562057495 13.009589195251465 255 255 255
-0.4716426730155945 3.0031211376190186 11.735913276672363 255 255 255
-0.5213700532913208 2.9447906017303467 12.986263275146484 255 255 255
-0.45394691824913025 3.014873743057251 11.569973945617676 255 255 255
-0.4517567455768585 3.008957862854004 11.54897403717041 255 255 255
-0.5311598181724548 2.9660353660583496 14.64816951751709 255 255 255
-0.47779685258865356 2.8354299068450928 13.223396301269531 255 255 255
-0.4623600244522095 2.8864030838012695 13.183150291442871 255 255 255
-0.3985397219657898 2.9982759952545166 11.709856986999512 255 255 255
-0.49298661947250366 2.996032238006592 14.61040210723877 255 255 255
-0.32323867082595825 2.9684040546417236 10.255616188049316 255 255 255
-0.35873711109161377 3.035067558288574 11.414698600769043 255 255 255
-0.40847963094711304 2.9305920600891113 13.34605598449707 255 255 255
-0.3423822522163391 3.024930477142334 11.504111289978027 255 255 255
-0.3484099805355072 2.9945425987243652 11.911062240600586 255 255 255
-0.33611780405044556 3.0451388359069824 11.499135971069336 255 255 255
-0.3391640782356262 3.0206449031829834 11.61391544342041 255 255 255
-0.38089409470558167 2.8804049491882324 13.311506271362305 255 255 255
-0.3665229380130768 2.9393181800842285 12.881898880004883 255 255 255
-0.32480087876319885 2.9985404014587402 11.774110794067383 255 255 255
-0.3504052758216858 2.943019151687622 13.06375789642334 255 255 255
-0.30954471230506897 3.0364177227020264 11.730161666870117 255 255 255
-0.2993471920490265 2.9888510704040527 12.191557884216309 255 255 255
-0.30713051557540894 3.0131678581237793 12.685171127319336 255 255 255
-0.286018043756485 2.9955742359161377 11.88735580444336 255 255 255
-0.28727468848228455 2.9894609451293945 12.084124565124512 255 255 255
-0.28728431463241577 3.0335395336151123 12.639270782470703 255 255 255
-0.2867851257324219 2.9972362518310547 12.790522575378418 255 255 255
-0.27068236470222473 2.9770548343658447 12.917080879211426 255 255 255
-0.2604602873325348 3.0079188346862793 12.662160873413086 255 255 255
-0.23851053416728973 3.010777235031128 11.967985153198242 255 255 255
-0.23403869569301605 2.981180429458618 12.224691390991211 255 255 255
-0.22428399324417114 3.019320011138916 11.908082962036133 255 255 255
-0.22250543534755707 3.0051803588867188 12.024930000305176 255 255 255
-0.2440495491027832 2.9642598628997803 13.33408260345459 255 255 255
-0.2120285928249359 3.018967866897583 11.67267894744873 255 255 255
-0.23342745006084442 2.986311435699463 12.963907241821289 255 255 255
-0.2262059450149536 3.0091981887817383 12.765000343322754 255 255 255
-0.23172499239444733 2.9831161499023438 13.136849403381348 255 255 255
-0.22806106507778168 2.9832921028137207 13.09992790222168 255 255 255
-0.21042922139167786 2.9986672401428223 12.187667846679688 255 255 255
-0.21169587969779968 2.995804786682129 12.323921203613281 255 255 255
-0.20275941491127014 3.0123982429504395 11.904580116271973 255 255 255
-0.20755891501903534 2.9912800788879395 12.221599578857422 255 255 255
-0.1938806176185608 3.016723155975342 12.02591609954834 255 255 255
-0.18133074045181274 3.001971483230591 12.251532554626465 255 255 255
-0.18133074045181274 3.001971483230591 12.251532554626465 255 255 255
-0.17542009055614471 2.991579532623291 12.893111228942871 255 255 255
-0.14833702147006989 3.006925344467163 12.249878883361816 255 255 255
-0.145415261387825 3.0174753665924072 12.01343059539795 255 255 255
-0.137411430478096 3.027785539627075 12.000959396362305 255 255 255
-0.1554240882396698 2.918391466140747 14.546072959899902 255 255 255
-0.11449199169874191 3.007174253463745 12.216572761535645 255 255 255
-0.12076171487569809 3.011789560317993 13.033117294311523 255 255 255
-0.10734625160694122 3.020237684249878 11.897872924804688 255 255 255
-0.10318789631128311 3.01056170463562 12.020472526550293 255 255 255
-0.10250899195671082 3.0066075325012207 12.057903289794922 255 255 255
-0.1035057082772255 3.031653881072998 12.211287498474121 255 255 255
-0.08774174749851227 2.9101762771606445 14.06108570098877 255 255 255
-0.07197368890047073 2.93522310256958 13.202533721923828 255 255 255
-0.07197368890047073 2.93522310256958 13.202533721923828 255 255 255
-0.07197368890047073 2.93522310256958 13.202533721923828 255 255 255
-0.0682855024933815 3.009056329727173 12.956308364868164 255 255 255
-0.05916735902428627 3.0179522037506104 11.84276008605957 255 255 255
-0.06713207066059113 2.9090213775634766 14.10678768157959 255 255 255
-0.062247615307569504 2.926327705383301 13.636247634887695 255 255 255
-0.05313367396593094 3.008150339126587 12.61648178100586 255 255 255
-0.0461653433740139 3.033660650253296 11.818427085876465 255 255 255
-0.04120258614420891 3.012404680252075 12.023520469665527 255 255 255
-0.03392590954899788 2.91133713722229 14.285646438598633 255 255 255
-0.018704984337091446 2.9230315685272217 14.845648765563965 255 255 255
-0.011473423801362514 3.000563859939575 12.195137977600098 255 255 255
-0.00914889108389616 2.9015190601348877 14.164483070373535 255 255 255
-0.0037008081562817097 2.9993515014648438 11.946696281433105 255 255 255
-0.002587564056739211 3.041301965713501 11.984466552734375 255 255 255
-0.0022822453174740076 2.835613250732422 14.966845512390137 255 255 255
-0.0004255342937540263 2.910935878753662 13.214014053344727 255 255 255
0.0007664192235097289 2.994920253753662 12.100624084472656 255 255 255
0.012800842523574829 2.876742124557495 14.811518669128418 255 255 255
0.03659716248512268 2.882528066635132 13.317278861999512 255 255 255
0.03659716248512268 2.882528066635132 13.317278861999512 255 255 255
0.04943297803401947 2.9517040252685547 12.403254508972168 255 255 255
0.058788079768419266 2.840427875518799 13.349705696105957 255 255 255
0.06031723693013191 2.8802261352539062 13.389946937561035 255 255 255
0.06672060489654541 3.0272045135498047 12.035390853881836 255 255 255
0.07029206305742264 2.9946513175964355 12.111678123474121 255 255 255
0.0742063969373703 2.961810350418091 12.397740364074707 255 255 255
0.0759243369102478 2.927640199661255 12.548903465270996 255 255 255
0.08668260276317596 2.956982135772705 12.314098358154297 255 255 255
0.11177080869674683 2.894986391067505 14.63937759399414 255 255 255
0.12673549354076385 2.7742674350738525 15.321109771728516 255 255 255
0.109571672976017 3.063308000564575 12.151132583618164 255 255 255
0.1510794460773468 2.8012874126434326 15.170933723449707 255 255 255
0.17809389531612396 2.84889554977417 14.886767387390137 255 255 255
0.19038574397563934 2.7680742740631104 15.166747093200684 255 255 255
0.16969910264015198 2.904204845428467 12.876078605651855 255 255 255
0.20696286857128143 2.871781826019287 14.81923770904541 255 255 255
0.21396996080875397 2.8051908016204834 15.108514785766602 255 255 255
0.18563354015350342 2.918877363204956 12.812227249145508 255 255 255
0.22864186763763428 2.8178958892822266 14.823373794555664 255 255 255
0.22864186763763428 2.8178958892822266 14.823373794555664 255 255 255
0.21843406558036804 2.8434431552886963 13.154692649841309 255 255 255
0.26966381072998047 2.7864725589752197 15.20674991607666 255 255 255
0.26545828580856323 2.842500686645508 14.844230651855469 255 255 255
0.3184488117694855 2.7626185417175293 15.28092098236084 255 255 255
0.3344016969203949 2.7785842418670654 15.19486141204834 255 255 255
0.28619977831840515 2.9026780128479004 12.72511100769043 255 255 255
0.3382289707660675 2.8333845138549805 14.936792373657227 255 255 255
0.33614909648895264 2.8022725582122803 14.610454559326172 255 255 255
0.35245633125305176 2.7729969024658203 15.064419746398926 255 255 255
0.35245633125305176 2.7729969024658203 15.064419746398926 255 255 255
0.32348689436912537 2.8059306144714355 13.505924224853516 255 255 255
0.3107072412967682 2.919067144393921 12.678561210632324 255 255 255
0.38944175839424133 2.7177395820617676 15.457768440246582 255 255 255
0.3797054588794708 2.761671543121338 15.071514129638672 255 255 255
0.32143422961235046 2.864150047302246 12.749059677124023 255 255 255
0.406112402677536 2.772170066833496 15.122354507446289 255 255 255
0.36351510882377625 2.8254384994506836 13.108834266662598 255 255 255
0.42480581998825073 2.749349355697632 15.306416511535645 255 255 255
0.35188767313957214 2.956698179244995 12.664687156677246 255 255 255
0.35414522886276245 2.8954200744628906 12.692059516906738 255 255 255
0.35782527923583984 2.9145588874816895 12.665513038635254 255 255 255
0.36790594458580017 2.830275297164917 12.832331657409668 255 255 255
0.37514883279800415 2.871964931488037 12.655997276306152 255 255 255
0.45315447449684143 2.753624677658081 15.17859172821045 255 255 255
0.5086379647254944 1.155901551246643 16.914491653442383 255 255 255
0.3955685794353485 2.8431150913238525 12.91067123413086 255 255 255
0.47343143820762634 2.738949775695801 15.234735488891602 255 255 255
0.42278754711151123 2.844172954559326 13.019661903381348 255 255 255
0.4256170392036438 3.0163257122039795 12.865551948547363 255 255 255
0.5024125576019287 2.731168508529663 15.020200729370117 255 255 255
0.46322593092918396 2.848005771636963 13.34950065612793 255 255 255
0.4873720109462738 2.80781626701355 13.939990043640137 255 255 255
0.4886017441749573 2.7710626125335693 13.492883682250977 255 255 255
0.5136967301368713 2.8118786811828613 13.916130065917969 255 255 255
0.5003358125686646 2.9412031173706055 13.354498863220215 255 255 255
0.5228584408760071 2.824796676635742 13.817920684814453 255 255 255
0.5246478319168091 2.8490471839904785 13.722986221313477 255 255 255
0.6499159932136536 1.022327184677124 16.97291374206543 255 255 255
0.5814961791038513 2.8076565265655518 15.06325912475586 255 255 255
0.5327643156051636 2.904507637023926 13.596450805664062 255 255 255
0.6644093990325928 0.977615237236023 16.955398559570312 255 255 255
0.5381380915641785 2.871443510055542 13.634693145751953 255 255 255
0.5240744948387146 2.964207887649536 13.263648986816406 255 255 255
0.5738664865493774 2.788975238800049 14.29692554473877 255 255 255
0.611261785030365 2.809481620788574 14.887450218200684 255 255 255
0.5651610493659973 2.8648476600646973 13.764179229736328 255 255 255
0.574552595615387 2.8023228645324707 13.965292930603027 255 255 255
0.5575709939002991 2.9262044429779053 13.44898796081543 255 255 255
0.567812979221344 2.882948875427246 13.63194465637207 255 255 255
0.5832756757736206 2.815600633621216 13.869613647460938 255 255 255
0.5676043629646301 3.0054941177368164 13.185901641845703 255 255 255
0.6241423487663269 2.7828245162963867 14.419417381286621 255 255 255
0.7498065233230591 0.8325814604759216 17.178043365478516 255 255 255
0.751312792301178 0.8175044059753418 17.207874298095703 255 255 255
0.5796013474464417 2.932396650314331 13.254277229309082 255 255 255
0.6083866357803345 2.8445024490356445 13.860986709594727 255 255 255
0.6468737721443176 2.7765390872955322 14.623404502868652 255 255 255
0.6105228066444397 2.8665289878845215 13.797233581542969 255 255 255
0.627708375453949 2.8057987689971924 13.991922378540039 255 255 255
0.6849982142448425 2.8093199729919434 15.231971740722656 255 255 255
0.6249521374702454 2.8919951915740967 13.75682544708252 255 255 255
0.6553639769554138 2.8032147884368896 14.27560806274414 255 255 255
0.6634807586669922 2.8761725425720215 13.842436790466309 255 255 255
0.693307638168335 2.7810661792755127 14.396388053894043 255 255 255
0.6512026190757751 2.9054782390594482 13.355854034423828 255 255 255
0.7026754021644592 2.8425300121307373 13.920949935913086 255 255 255
0.6837936043739319 2.896880865097046 13.522533416748047 255 255 255
0.6805270910263062 2.8928239345550537 13.399918556213379 255 255 255
1.1438137292861938 2.8683876991271973 14.37353229522705 255 255 255
1.2079771757125854 2.4531607627868652 13.07161808013916 255 255 255
1.3430678844451904 2.3789265155792236 13.118825912475586 255 255 255
1.5090473890304565 2.3222553730010986 11.675554275512695 255 255 255
1.5090473890304565 2.3222553730010986 11.675554275512695 255 255 255
1.545807957649231 2.421330213546753 11.68741226196289 255 255 255
1.5812633037567139 2.2430851459503174 11.471951484680176 255 255 255
1.9539334774017334 2.175358772277832 12.248814582824707 255 255 255
1.7617580890655518 2.198564291000366 10.75898265838623 255 255 255
1.8102887868881226 2.3702073097229004 10.693809509277344 255 255 255
1.909374713897705 2.147172451019287 10.411577224731445 255 255 255
1.909374713897705 2.147172451019287 10.411577224731445 255 255 255
2.3279531002044678 1.3149871826171875 5.312777519226074 255 255 255
