ply
format ascii 1.0
element vertex 698
property float x
property float y
property float z
property uchar red
property uchar green
property uchar blue
end_header
-0.37391605973243713 2.282527446746826 2.051079034805298 122 93 74
-0.46065273880958557 1.991747260093689 2.55715012550354 104 91 92
-0.3754836618900299 2.26743483543396 2.1224381923675537 90 63 44
-0.480713814496994 1.729620099067688 2.7271714210510254 212 206 192
-0.3776988983154297 2.1843883991241455 2.1478004455566406 86 62 54
-0.36705267429351807 2.27702260017395 2.116239070892334 163 146 122
-0.3840447664260864 2.107405424118042 2.2182419300079346 220 207 197
-0.4393434226512909 1.9762030839920044 2.5671310424804688 223 218 201
-0.472456693649292 1.6948717832565308 2.767657518386841 219 212 199
-0.45194029808044434 1.7151665687561035 2.768019914627075 144 121 106
-0.3248094916343689 2.280243396759033 2.0599772930145264 218 198 172
-0.3332114815711975 2.25398325920105 2.118631601333618 58 41 31
-0.3832462728023529 2.0497472286224365 2.5009119510650635 155 148 136
-0.31038200855255127 2.3131630420684814 2.0479979515075684 37 40 48
-0.41126152873039246 1.8154699802398682 2.7311174869537354 226 208 178
-0.41887855529785156 1.7082656621932983 2.7839982509613037 166 135 110
-0.40212583541870117 1.896027684211731 2.6805334091186523 210 187 163
-0.3957033157348633 1.8642809391021729 2.7281863689422607 132 103 84
-0.40251389145851135 1.7074228525161743 2.7823479175567627 157 128 103
-0.37206223607063293 1.9222381114959717 2.6401824951171875 179 149 128
-0.388290673494339 1.742269515991211 2.7747719287872314 204 180 158
-0.4005323350429535 1.6681712865829468 2.880066156387329 66 50 41
-0.35423925518989563 2.0075879096984863 2.5654296875 100 72 62
-0.38240310549736023 1.7150458097457886 2.7821316719055176 148 116 93
-0.37592649459838867 1.8096784353256226 2.741363525390625 220 204 174
-0.3773733973503113 1.7773973941802979 2.7637648582458496 169 147 126
-0.31863129138946533 2.122278928756714 2.3359830379486084 81 64 50
-0.34024354815483093 2.0581886768341064 2.507033348083496 223 216 203
-0.34632608294487 1.9747297763824463 2.574854850769043 186 155 125
-0.35772690176963806 1.8971589803695679 2.6882097721099854 112 85 74
-0.36904773116111755 1.758857011795044 2.7762959003448486 112 84 66
-0.367340624332428 1.7255914211273193 2.778402328491211 181 152 130
-0.36239898204803467 1.795456051826477 2.7682604789733887 131 104 86
-0.35943982005119324 1.8256844282150269 2.7462852001190186 142 117 97
-0.36424222588539124 1.6884177923202515 2.7845070362091064 231 205 175
-0.35091257095336914 1.8091551065444946 2.7679529190063477 196 168 147
-0.3421248495578766 1.8336557149887085 2.7421681880950928 184 160 137
-0.32917097210884094 1.8618918657302856 2.7392683029174805 128 102 81
-0.32917097210884094 1.8618918657302856 2.7392683029174805 128 102 81
-0.31973615288734436 1.9013137817382812 2.666597843170166 225 201 175
-0.3198126554489136 1.8917700052261353 2.7002668380737305 117 92 74
-0.3234783709049225 1.7809300422668457 2.78205943107605 130 104 83
-0.31281429529190063 1.7435126304626465 2.8014676570892334 116 89 70
-0.2987775504589081 1.9033337831497192 2.685464859008789 223 201 176
-0.31110456585884094 1.7591603994369507 2.8001580238342285 197 171 150
-0.28998374938964844 1.9268001317977905 2.6696481704711914 133 109 86
-0.28881898522377014 1.9246686697006226 2.6671581268310547 133 109 86
-0.28173914551734924 1.673226237297058 2.8174333572387695 167 144 112
-0.27354466915130615 1.7086225748062134 2.817232370376587 192 167 145
-0.2531901001930237 1.904602289199829 2.6858365535736084 225 203 177
-0.22041811048984528 2.025357484817505 2.5264596939086914 93 64 50
-0.23123332858085632 1.9574601650238037 2.6578993797302246 45 53 62
-0.23997296392917633 1.724138855934143 2.8340401649475098 104 80 64
-0.21975743770599365 1.9425640106201172 2.66737961769104 162 147 135
-0.21929027140140533 1.885035753250122 2.7073557376861572 157 132 107
-0.21597647666931152 1.957278847694397 2.6683950424194336 43 50 64
-0.21644200384616852 1.9292868375778198 2.678265333175659 210 188 160
-0.22422631084918976 1.6964774131774902 2.8304367065429688 129 105 81
-0.22009114921092987 1.7665793895721436 2.795226573944092 196 172 147
-0.20572590827941895 1.9002432823181152 2.6942787170410156 136 110 89
-0.2087366282939911 1.7548621892929077 2.812105894088745 140 120 93
-0.19673432409763336 1.9304726123809814 2.6925485134124756 223 206 181
-0.20649069547653198 1.6523691415786743 2.9362289905548096 85 65 54
-0.17386461794376373 2.0588185787200928 2.49133563041687 58 60 70
-0.1860552579164505 1.8577946424484253 2.7362775802612305 160 137 112
-0.18322861194610596 1.8834506273269653 2.7081074714660645 157 130 107
-0.18634530901908875 1.83078932762146 2.782346487045288 192 171 144
-0.18044346570968628 1.88948392868042 2.7075448036193848 161 134 111
-0.17939968407154083 1.867600917816162 2.72601318359375 161 137 112
-0.1749371886253357 1.848644495010376 2.780416965484619 117 87 67
-0.1731754094362259 1.812272548675537 2.7919368743896484 138 108 87
-0.16248241066932678 1.7893606424331665 2.8028814792633057 202 179 154
-0.15848158299922943 1.830863118171692 2.7824530601501465 193 169 147
-0.15007583796977997 1.8936853408813477 2.718081474304199 148 121 98
-0.1452070027589798 1.8509199619293213 2.74080753326416 158 140 110
-0.14140130579471588 1.9046534299850464 2.7124030590057373 161 134 111
-0.13952767848968506 1.884899616241455 2.723473310470581 223 201 176
-0.14379918575286865 1.74882173538208 2.839643955230713 146 124 98
-0.13530756533145905 1.92655611038208 2.689757823944092 165 147 132
-0.1400446742773056 1.7925689220428467 2.8093056678771973 147 121 98
-0.13688234984874725 1.823305368423462 2.79226016998291 209 188 163
-0.1380339413881302 1.776956558227539 2.8248181343078613 139 113 89
-0.13602037727832794 1.779902458190918 2.8214433193206787 135 109 86
-0.13094425201416016 1.8664662837982178 2.7392826080322266 168 144 117
-0.1308528184890747 1.852616786956787 2.7519173622131348 149 123 98
-0.12793265283107758 1.9010332822799683 2.7127914428710938 229 207 180
-0.12895575165748596 1.8587292432785034 2.742342233657837 217 190 165
-0.12151005119085312 1.8928195238113403 2.724611282348633 142 112 87
-0.11252627521753311 1.8636664152145386 2.7464725971221924 150 118 95
-0.11252627521753311 1.8636664152145386 2.7464725971221924 150 118 95
-0.11346904188394547 1.654651165008545 2.9056851863861084 221 205 177
-0.10554463416337967 1.802433729171753 2.804590940475464 144 120 95
-0.09737484902143478 1.7919738292694092 2.8148484230041504 156 131 107
-0.09219609200954437 1.8681116104125977 2.748142957687378 214 188 163
-0.09136872738599777 1.8960634469985962 2.7258706092834473 160 134 108
-0.08641305565834045 1.904272198677063 2.725428581237793 224 197 175
-0.08680831640958786 1.6335188150405884 2.9373295307159424 103 86 69
-0.07358101010322571 1.8290255069732666 2.7946369647979736 202 177 152
-0.07117411494255066 1.8715511560440063 2.745582103729248 139 104 84
-0.07218270003795624 1.8047007322311401 2.819356679916382 201 180 153
-0.06790052354335785 1.9094812870025635 2.716355562210083 217 195 174
-0.06485086679458618 1.8918657302856445 2.727841377258301 235 206 182
-0.06435316056013107 1.8860275745391846 2.7315094470977783 152 124 100
-0.06443288177251816 1.88861083984375 2.746816873550415 221 196 172
-0.054196394979953766 1.938611626625061 2.715003728866577 55 59 69
-0.04930531978607178 1.8850924968719482 2.730301856994629 219 197 171
-0.04750458523631096 1.864305019378662 2.753021001815796 149 121 96
-0.050052788108587265 1.6636708974838257 2.9013445377349854 104 80 62
-0.04458406940102577 1.6789003610610962 2.873203754425049 213 197 167
-0.04260547086596489 1.743661642074585 2.8320798873901367 130 103 84
-0.04260547086596489 1.743661642074585 2.8320798873901367 130 103 84
-0.04260547086596489 1.743661642074585 2.8320798873901367 130 103 84
-0.04107040539383888 1.8107577562332153 2.814958095550537 131 108 85
-0.03763711079955101 1.9144994020462036 2.713066816329956 176 157 149
-0.038107920438051224 1.6596702337265015 2.9049289226531982 104 78 56
-0.0361160933971405 1.7049466371536255 2.8683056831359863 122 96 74
-0.03241918608546257 1.8388904333114624 2.7849297523498535 200 176 150
-0.029231639578938484 1.9270217418670654 2.710937261581421 57 64 74
-0.025981158018112183 1.8945837020874023 2.7308919429779053 146 122 100
-0.019238032400608063 1.649385929107666 2.920917272567749 122 102 76
-0.010063614696264267 1.616706371307373 2.9620747566223145 84 62 52
-0.007206065580248833 1.8719637393951416 2.7477242946624756 158 133 110
-0.005202318076044321 1.652337908744812 2.9115853309631348 226 205 179
-0.002353103831410408 1.893606424331665 2.724090337753296 214 195 168
-0.0016848716186359525 1.918451189994812 2.7298972606658936 89 76 73
-0.0010414166608825326 1.5584170818328857 2.9678192138671875 206 196 183
-0.00015437944966834038 1.7289246320724487 2.834494113922119 200 179 152
0.0004969676956534386 1.8767313957214355 2.7386536598205566 227 204 181
0.007266571279615164 1.5927016735076904 2.958822011947632 147 128 113
0.007991925813257694 1.5830248594284058 2.9772210121154785 104 85 73
0.009442773647606373 1.6087454557418823 2.962015151977539 91 70 54
0.021626943722367287 1.7041581869125366 2.843743085861206 190 170 146
0.021626943722367287 1.7041581869125366 2.843743085861206 190 170 146
0.027341019362211227 1.7295541763305664 2.838196039199829 108 85 64
0.0285560991615057 1.7435325384140015 2.822178840637207 193 170 149
0.03048812597990036 1.8230277299880981 2.7671799659729004 159 133 110
0.03475668281316757 1.6755651235580444 2.844878673553467 199 176 153
0.03565116971731186 1.697197675704956 2.8498547077178955 132 103 82
0.041958536952733994 1.906151533126831 2.736886501312256 140 129 122
0.045867156237363815 1.6639785766601562 2.850689172744751 210 187 163
0.04400312155485153 1.8776524066925049 2.742896795272827 134 111 95
0.04569694399833679 1.83119797706604 2.7688140869140625 213 190 166
0.04658440873026848 1.7953368425369263 2.7800450325012207 219 198 168
0.047158028930425644 1.7685760259628296 2.8008556365966797 198 171 149
0.05493935942649841 1.6748440265655518 2.847644090652466 124 99 76
0.05369679257273674 1.8353339433670044 2.76098370552063 168 150 124
0.06260089576244354 1.6159578561782837 2.9490952491760254 189 166 141
0.06870628893375397 1.5024250745773315 2.9938080310821533 199 185 165
0.06862390786409378 1.9207990169525146 2.751284599304199 54 60 72
0.0824083685874939 1.5275733470916748 2.985299825668335 130 109 93
0.0985342487692833 1.5731760263442993 2.966867685317993 218 201 173
0.1037970706820488 1.5093804597854614 2.9848079681396484 101 77 63
0.10262148827314377 1.7551318407058716 2.8113656044006348 186 160 138
0.10593384504318237 1.6413631439208984 2.8688879013061523 158 131 108
0.11520213633775711 1.5561654567718506 2.9856503009796143 100 74 60
0.114723339676857 1.5918773412704468 2.9647579193115234 96 71 56
0.11700601875782013 1.5346261262893677 2.982996702194214 182 163 142
0.11250811070203781 1.7706681489944458 2.8079354763031006 123 98 79
0.12054851651191711 1.7120226621627808 2.8256642818450928 204 188 164
0.1267286241054535 1.5601515769958496 2.9626646041870117 201 184 154
0.1267286241054535 1.5601515769958496 2.9626646041870117 201 184 154
0.1300872415304184 1.654310941696167 2.8557052612304688 213 193 167
0.13020984828472137 1.6959820985794067 2.8352320194244385 153 133 107
0.14684359729290009 1.5183814764022827 2.9907186031341553 195 174 154
0.14703263342380524 1.5736757516860962 2.9665067195892334 102 77 65
0.14749428629875183 1.6038739681243896 2.922039270401001 156 130 106
0.17290917038917542 1.5005292892456055 2.9958655834198 92 68 51
0.1667865663766861 1.7223308086395264 2.8172080516815186 142 116 92
0.16593225300312042 1.75434410572052 2.8030521869659424 155 132 117
0.1822734773159027 1.51532781124115 2.991239070892334 221 199 171
0.17700769007205963 1.6343295574188232 2.8798232078552246 223 201 175
0.1744968295097351 1.7694246768951416 2.802988290786743 65 48 39
0.1865379810333252 1.5636831521987915 2.975738286972046 100 73 60
0.1795082986354828 1.7012884616851807 2.8226823806762695 219 198 173
0.18801283836364746 1.5669739246368408 2.9503402709960938 210 187 163
0.19320695102214813 1.5206103324890137 2.9823856353759766 138 111 88
0.19320695102214813 1.5206103324890137 2.9823856353759766 138 111 88
0.18998892605304718 1.6475881338119507 2.8659565448760986 231 208 184
0.19173957407474518 1.6608612537384033 2.8496105670928955 152 120 103
0.18993432819843292 1.7847115993499756 2.8009514808654785 161 144 132
0.1960175335407257 1.687525987625122 2.83103084564209 214 192 167
0.20984067022800446 1.4651485681533813 3.0082013607025146 183 158 135
0.2081552892923355 1.5136938095092773 2.982628107070923 213 190 161
0.19572167098522186 1.7435264587402344 2.804936408996582 153 133 107
0.2108888179063797 1.6458123922348022 2.8623013496398926 138 110 88
0.2221633940935135 1.5171196460723877 2.987963914871216 144 119 94
0.21765483915805817 1.690808892250061 2.835422992706299 148 121 99
0.23052936792373657 1.4927613735198975 3.0002801418304443 99 75 55
0.21557098627090454 1.8109601736068726 2.8025691509246826 147 137 127
0.21641524136066437 1.7693278789520264 2.802860736846924 128 111 91
0.2189967781305313 1.784171223640442 2.8017356395721436 158 141 126
0.22827641665935516 1.6515913009643555 2.8595519065856934 210 184 161
0.2473791390657425 1.5033022165298462 2.9920332431793213 134 111 86
0.23907338082790375 1.601847529411316 2.886812210083008 229 207 181
0.23922111093997955 1.7185475826263428 2.820829153060913 159 139 114
0.2577608525753021 1.4919934272766113 2.996553659439087 221 198 176
0.2604428231716156 1.5396909713745117 2.98420786857605 74 47 36
0.2544651925563812 1.7111538648605347 2.831294059753418 129 107 84
0.25874853134155273 1.8340659141540527 2.8256936073303223 101 93 88
0.25846150517463684 1.730589509010315 2.816455125808716 213 196 172
0.26678037643432617 1.6225687265396118 2.8988049030303955 126 96 80
0.2613374888896942 1.700724482536316 2.834005832672119 129 100 84
0.2761605381965637 1.5011749267578125 2.9818172454833984 226 213 185
0.27473199367523193 1.688276767730713 2.8600151538848877 131 105 90
0.2812190353870392 1.6198581457138062 2.9061203002929688 166 139 120
0.2876257002353668 1.6299984455108643 2.8693010807037354 160 139 117
0.2968696057796478 1.6243388652801514 2.905062437057495 120 94 72
0.2971983551979065 1.7472882270812988 2.8662521839141846 178 160 139
0.30364567041397095 1.6393057107925415 2.8978822231292725 178 155 134
0.3060512840747833 1.661857008934021 2.8925881385803223 109 84 64
0.3195843994617462 1.5437268018722534 2.990755081176758 76 52 43
0.31293871998786926 1.7055230140686035 2.8846280574798584 122 102 81
0.31536194682121277 1.682593822479248 2.8870577812194824 193 176 150
0.31289777159690857 1.7691638469696045 2.859938144683838 206 187 166
0.3260529041290283 1.584978461265564 2.935889720916748 207 185 159
0.338607519865036 1.5570913553237915 2.9800286293029785 98 74 56
0.32935839891433716 1.6688259840011597 2.8972585201263428 172 150 128
0.33148708939552307 1.616145133972168 2.9107558727264404 120 92 70
0.3492226302623749 1.4816375970840454 3.0473740100860596 118 96 73
0.3299647569656372 1.7311906814575195 2.8748297691345215 118 95 71
0.33298659324645996 1.690463662147522 2.888367176055908 137 120 97
0.338046669960022 1.6317754983901978 2.905036211013794 163 137 117
0.3404991924762726 1.803110957145691 2.8576509952545166 160 142 120
0.352937787771225 1.5729657411575317 2.945127010345459 204 177 154
0.34622907638549805 1.7517741918563843 2.861055850982666 180 163 142
0.35306525230407715 1.6499230861663818 2.9054532051086426 110 87 66
0.36251747608184814 1.5559862852096558 2.960939884185791 142 119 100
0.35543471574783325 1.6685343980789185 2.902078628540039 180 161 139
0.3692726492881775 1.4918122291564941 3.0064785480499268 216 200 172
0.3619411885738373 1.617627501487732 2.915457010269165 192 171 148
0.37411782145500183 1.535184383392334 3.0057294368743896 168 147 126
0.36469197273254395 1.6877844333648682 2.9009921550750732 136 113 96
0.373252809047699 1.5954350233078003 2.936074733734131 215 196 170
0.39396655559539795 1.5101890563964844 3.0080220699310303 200 184 158
0.38579031825065613 1.6719609498977661 2.90777587890625 107 83 64
0.3927111029624939 1.5752038955688477 2.946793794631958 211 195 169
0.3873964846134186 1.7281581163406372 2.870884895324707 145 126 115
0.40375787019729614 1.710151195526123 2.884960412979126 126 101 77
0.404099702835083 1.7173357009887695 2.875030517578125 214 196 179
0.6530367732048035 1.636159896850586 2.963597059249878 156 147 126
-0.7988514304161072 -0.33926641941070557 1.8774545192718506 78 74 72
-0.7988514304161072 -0.33926641941070557 1.8774545192718506 78 74 72
-1.2270052433013916 1.799448847770691 2.515517473220825 118 94 78
-1.1553139686584473 1.845609188079834 2.4503538608551025 128 103 88
-0.6528541445732117 -0.44476863741874695 1.839750051498413 79 78 65
-0.9362531900405884 1.9714343547821045 2.345734119415283 186 164 138
-0.7333115339279175 2.161846399307251 2.1765055656433105 169 149 137
-1.086094617843628 1.7929624319076538 2.6015732288360596 137 111 96
-1.0699613094329834 1.6803077459335327 2.5821049213409424 205 176 150
-0.8522742986679077 1.956204891204834 2.3431930541992188 120 96 79
-0.7140299677848816 2.1318466663360596 2.2096118927001953 102 78 67
-0.8598883748054504 1.9852399826049805 2.3805277347564697 119 93 78
-0.8236700296401978 1.9894906282424927 2.360714912414551 187 167 142
-0.7748190760612488 2.078010082244873 2.310364007949829 114 90 77
-0.5773605704307556 2.120284080505371 2.1851980686187744 199 177 151
-0.4585328996181488 2.205866813659668 2.0533106327056885 196 170 148
-0.7019889950752258 1.99838125705719 2.354750633239746 141 112 91
-0.43449676036834717 2.2492334842681885 2.034752130508423 99 76 69
-0.6834402084350586 2.0094237327575684 2.364349603652954 147 117 95
-0.7153801918029785 1.9131814241409302 2.4249489307403564 142 114 93
-0.7866888642311096 1.7915438413619995 2.5159425735473633 145 119 96
-0.4508261978626251 2.217388391494751 2.1165828704833984 187 163 143
-0.18018753826618195 -1.1883354187011719 1.5617016553878784 180 173 139
-0.45998457074165344 2.1517112255096436 2.1429033279418945 94 77 67
-0.7064183354377747 1.9083024263381958 2.4812819957733154 201 174 151
-0.9687065482139587 1.7013708353042603 2.8403124809265137 152 125 101
-0.31965240836143494 2.2237491607666016 1.9921683073043823 211 195 172
-0.9600284099578857 1.6884527206420898 2.8426601886749268 215 188 161
-0.7785221338272095 1.7671905755996704 2.5903496742248535 152 122 98
-0.15520378947257996 -1.2095667123794556 1.5566744804382324 186 177 146
-0.1619090586900711 -1.2035843133926392 1.5677813291549683 78 67 43
-0.17008757591247559 -1.2000908851623535 1.5855181217193604 70 63 47
-0.5383349061012268 2.043063163757324 2.28694748878479 185 157 133
-0.7763866782188416 1.729604959487915 2.6183040142059326 165 138 112
-0.3392258882522583 2.2348525524139404 2.0674047470092773 180 155 139
-0.3392258882522583 2.2348525524139404 2.0674047470092773 180 155 139
-0.41345828771591187 -0.3126286268234253 1.992417335510254 158 147 127
-0.30317503213882446 2.230027675628662 2.031252145767212 167 141 123
-0.38699230551719666 2.083996295928955 2.1465375423431396 188 175 165
-0.8723041415214539 1.6263116598129272 2.8296830654144287 181 152 126
-0.2662864923477173 -0.8029546141624451 1.7965240478515625 113 103 92
-0.3583369255065918 1.70326566696167 2.2237966060638428 153 127 100
-0.6912745833396912 1.7896138429641724 2.5840024948120117 152 123 100
-0.48561957478523254 1.8043209314346313 2.3645389080047607 211 185 159
-0.45819658041000366 1.8606271743774414 2.3255605697631836 194 167 143
-0.3399471044540405 2.1085586547851562 2.1122632026672363 111 103 95
-0.6495095491409302 1.8366758823394775 2.5499560832977295 207 183 159
-0.5151014924049377 1.7063571214675903 2.4146933555603027 214 189 162
-0.48773375153541565 1.747464895248413 2.402646541595459 149 121 95
-0.659099817276001 1.7955385446548462 2.591284990310669 218 190 166
-0.22727468609809875 2.2343013286590576 1.9999914169311523 25 35 43
-0.6555936336517334 1.7872459888458252 2.59816837310791 161 134 108
-0.6715730428695679 1.752052903175354 2.624511241912842 221 195 169
-0.6715730428695679 1.752052903175354 2.624511241912842 221 195 169
-0.6715730428695679 1.752052903175354 2.624511241912842 221 195 169
-0.23735038936138153 -0.849266767501831 1.808497667312622 107 93 91
-0.6336199045181274 1.8024163246154785 2.5785810947418213 212 187 162
-0.6480005383491516 1.7906017303466797 2.6002449989318848 203 176 150
-0.22974969446659088 -0.8271778225898743 1.8182214498519897 124 114 104
-0.3860277831554413 2.0528712272644043 2.2461493015289307 156 124 99
-0.6296568512916565 1.7875703573226929 2.599926471710205 149 123 95
-0.634081244468689 1.780518651008606 2.61067271232605 206 177 153
-0.49677976965904236 1.9834105968475342 2.44148588180542 137 108 85
-0.6226305365562439 1.8046809434890747 2.6150553226470947 97 66 51
-0.4058196246623993 -0.41880473494529724 2.1266732215881348 66 54 45
-0.31533777713775635 -0.31759485602378845 2.024956703186035 153 145 129
-0.17928540706634521 2.1867692470550537 2.0065083503723145 130 101 77
-0.29843804240226746 -0.3341233730316162 2.0046873092651367 177 168 152
-0.3180197477340698 2.1224253177642822 2.252589702606201 120 106 93
-0.400289386510849 2.0706052780151367 2.393256425857544 163 146 134
-0.4699162542819977 1.9951348304748535 2.514153242111206 193 185 171
-0.5794285535812378 1.7120916843414307 2.6985204219818115 130 100 84
-0.42942389845848083 2.03092098236084 2.4931695461273193 123 112 110
-0.27750250697135925 -0.4724177420139313 2.1129417419433594 40 28 22
-0.3055054843425751 2.054460287094116 2.352339267730713 91 70 60
-0.5487080216407776 1.6597896814346313 2.7374215126037598 209 198 182
-0.5442891120910645 1.64580500125885 2.746098279953003 210 201 186
-0.26394492387771606 2.1167256832122803 2.3157408237457275 152 152 142
-0.3501332998275757 2.0223441123962402 2.4772861003875732 185 175 163
-0.3501332998275757 2.0223441123962402 2.4772861003875732 185 175 163
-0.40527647733688354 1.988381028175354 2.57072114944458 110 98 86
-0.23421669006347656 -0.33431708812713623 2.1105265617370605 75 66 55
-0.2256843000650406 -0.36697620153427124 2.096769332885742 165 160 148
-0.20155861973762512 -0.46762439608573914 2.0928704738616943 48 34 30
-0.20812752842903137 -0.517457127571106 2.105095624923706 160 127 110
-0.20198655128479004 -0.5077290534973145 2.112607002258301 150 120 106
-0.22140786051750183 2.1193857192993164 2.3647384643554688 48 50 65
-0.43387946486473083 1.8006550073623657 2.7360990047454834 110 91 76
-0.51788330078125 1.6367042064666748 2.87746524810791 213 204 189
-0.22534553706645966 2.0693485736846924 2.3871512413024902 154 122 99
-0.4077870845794678 1.8891642093658447 2.706819772720337 196 174 153
-0.4151480197906494 1.8328094482421875 2.7301721572875977 181 162 138
-0.4151480197906494 1.8328094482421875 2.7301721572875977 181 162 138
-0.384691447019577 1.9055969715118408 2.685953140258789 119 95 76
-0.384691447019577 1.9055969715118408 2.685953140258789 119 95 76
-0.43939143419265747 1.7127431631088257 2.775970458984375 210 187 162
-0.4498556852340698 1.6868746280670166 2.7934446334838867 120 97 88
-0.3973725736141205 1.8676480054855347 2.7321014404296875 119 95 79
-0.10097908228635788 -0.9175809025764465 1.9796688556671143 49 36 28
-0.33704182505607605 1.9223767518997192 2.643644332885742 156 136 110
-0.38532301783561707 1.8257696628570557 2.739370584487915 135 109 89
-0.3898870646953583 1.8054221868515015 2.753521680831909 109 87 71
-0.3997451066970825 1.7240524291992188 2.772986888885498 217 196 171
-0.37050577998161316 1.8366636037826538 2.7320644855499268 181 159 131
-0.06767900288105011 -0.8674978017807007 1.9547145366668701 143 132 116
-0.34981343150138855 1.8865355253219604 2.7128641605377197 186 164 134
-0.3127900958061218 1.9156445264816284 2.6434292793273926 191 171 147
-0.31431201100349426 1.9385969638824463 2.6527514457702637 129 105 86
-0.05055630952119827 -0.9702616930007935 1.923012614250183 42 34 30
-0.21832121908664703 2.0250794887542725 2.4855072498321533 145 114 91
-0.30589982867240906 1.9014719724655151 2.6633026599884033 192 171 148
-0.2906266748905182 1.9467315673828125 2.655677080154419 163 143 124
-0.37769615650177 1.7033627033233643 2.8002240657806396 210 186 154
-0.43814387917518616 1.5363459587097168 2.9356343746185303 110 84 69
-0.34287121891975403 1.7168338298797607 2.794058084487915 125 101 75
-0.3301199674606323 1.7601608037948608 2.7768070697784424 173 148 129
-0.018446942791342735 -0.9925282597541809 1.960585355758667 64 60 54
-0.01298801600933075 -0.976241946220398 1.9508707523345947 122 118 112
-0.33873748779296875 1.6870206594467163 2.807316780090332 197 173 142
-0.010657237842679024 -0.965505063533783 1.968096137046814 83 79 72
-0.31589075922966003 1.7158077955245972 2.7937586307525635 189 166 144
-0.000952437985688448 -1.0236278772354126 1.954428791999817 121 116 112
-0.31262725591659546 1.6925383806228638 2.8005709648132324 144 120 93
-0.0016267907340079546 -0.9982966780662537 1.9659026861190796 96 93 88
-0.3019678294658661 1.7565209865570068 2.7978315353393555 178 156 132
0.009644601494073868 -1.0715832710266113 1.956831932067871 159 153 149
-0.3583834171295166 1.617903470993042 2.9308462142944336 100 80 66
-0.2999996542930603 1.6820226907730103 2.81445050239563 207 185 155
-0.2575569152832031 1.8710952997207642 2.756580352783203 197 173 149
-0.03476249799132347 -0.39887306094169617 2.1075494289398193 138 133 121
0.1698996126651764 -1.2935857772827148 1.6597533226013184 52 52 41
-0.23513440787792206 1.8533415794372559 2.7556328773498535 129 106 82
-0.21434620022773743 1.863999605178833 2.7207491397857666 152 127 103
-0.27663877606391907 1.6717076301574707 2.832439661026001 211 187 158
-0.3277123272418976 1.609384298324585 2.9573042392730713 180 171 154
-0.01696789637207985 -0.39510300755500793 2.110341787338257 124 121 105
-0.1798160821199417 1.8970882892608643 2.6777188777923584 150 127 106
-0.3137039840221405 1.6450045108795166 2.9513120651245117 150 139 128
-0.2401236891746521 1.746638298034668 2.811356782913208 214 196 169
-0.29821038246154785 1.6565271615982056 2.950509548187256 77 62 52
0.19893261790275574 -1.3195712566375732 1.655518651008606 85 74 64
-0.16598331928253174 1.9120715856552124 2.6962640285491943 194 176 146
0.0007168310112319887 -0.39862632751464844 2.115694522857666 46 41 34
-0.16588521003723145 1.9066284894943237 2.6970653533935547 210 192 161
-0.154416024684906 1.902976393699646 2.704063892364502 210 185 161
-0.21895161271095276 1.725127100944519 2.8299612998962402 117 96 77
-0.27606385946273804 1.5839415788650513 2.954296827316284 122 96 71
-0.22664596140384674 1.6740102767944336 2.846080780029297 202 178 149
-0.14880073070526123 1.8904564380645752 2.715580701828003 143 117 94
-0.18964305520057678 1.7723623514175415 2.8091626167297363 132 110 89
-0.1979922354221344 1.6680169105529785 2.8448517322540283 133 107 85
-0.19083984196186066 1.6615339517593384 2.863689422607422 221 200 167
-0.17275583744049072 1.6894177198410034 2.8279366493225098 90 70 59
-0.17761680483818054 1.7366541624069214 2.855134963989258 170 149 125
-0.12636840343475342 1.8303704261779785 2.7731845378875732 150 126 103
-0.1647893637418747 1.6670477390289307 2.8541362285614014 183 159 132
-0.08269329369068146 1.9064055681228638 2.713169813156128 187 166 141
0.21409057080745697 -1.3334969282150269 1.7580081224441528 167 115 103
-0.11906230449676514 1.7896220684051514 2.809183120727539 200 176 149
-0.1414569765329361 1.7220516204833984 2.8705625534057617 144 127 104
0.22450470924377441 -1.378377079963684 1.759502649307251 168 139 127
0.23721207678318024 -1.3721235990524292 1.7344423532485962 112 94 83
-0.13151679933071136 1.7282660007476807 2.8573827743530273 178 159 134
-0.15323950350284576 1.5991053581237793 2.931648015975952 165 146 132
-0.051362212747335434 1.8678855895996094 2.740537166595459 201 176 152
0.23461079597473145 -1.377302646636963 1.7829058170318604 87 80 70
-0.10973712056875229 1.6482545137405396 2.8965511322021484 220 204 171
-0.04709487035870552 1.8470584154129028 2.7715182304382324 218 192 168
0.43026795983314514 -2.277194023132324 1.3637210130691528 132 124 105
-0.025548726320266724 1.8920068740844727 2.7367420196533203 182 157 133
-0.12035299837589264 1.518842339515686 2.9414052963256836 103 84 69
-0.07260263711214066 1.706768274307251 2.853703498840332 217 199 169
-0.10916054248809814 1.5826395750045776 2.9359142780303955 176 167 156
-0.03809863701462746 1.8089700937271118 2.8316822052001953 175 153 132
0.5365796089172363 -2.2400267124176025 1.1828796863555908 180 176 155
-0.03439243510365486 1.7029756307601929 2.8646833896636963 119 95 79
-0.043390024453401566 1.6532385349273682 2.881831645965576 105 83 69
0.5370569229125977 -2.287705659866333 1.1926226615905762 134 130 119
-0.06086372956633568 1.6252012252807617 2.9603750705718994 96 77 69
0.23798999190330505 -1.3720066547393799 1.9209599494934082 85 82 71
0.23798999190330505 -1.3720066547393799 1.9209599494934082 85 82 71
0.0029404235538095236 1.7239830493927002 2.8260765075683594 194 172 146
-0.01896093040704727 1.6669561862945557 2.892697334289551 204 182 157
-0.015868043527007103 1.6390467882156372 2.9368202686309814 214 198 166
0.5502653121948242 -2.3181588649749756 1.2142618894577026 194 189 174
0.08099174499511719 1.8518822193145752 2.7595326900482178 96 83 76
0.08387406915426254 1.8432188034057617 2.773148536682129 157 142 133
0.0562191866338253 1.7313456535339355 2.8383045196533203 190 167 143
0.26543667912483215 -1.4526764154434204 1.977810263633728 93 88 80
0.07640068978071213 1.6974847316741943 2.8330841064453125 182 160 133
0.5113111734390259 -2.390256404876709 1.3862353563308716 184 175 154
0.09946859627962112 1.7177408933639526 2.8166913986206055 133 106 85
0.1287996470928192 1.8558411598205566 2.7682745456695557 38 46 56
0.11853628605604172 1.7914116382598877 2.7923107147216797 179 161 134
0.06407761573791504 1.6323449611663818 2.9410877227783203 185 161 134
0.11669737845659256 1.7423632144927979 2.8026063442230225 125 102 81
0.09506819397211075 1.6435761451721191 2.8543946743011475 207 182 159
0.11001503467559814 1.6963450908660889 2.8200759887695312 134 110 92
0.10150415450334549 -0.05670350790023804 2.6655969619750977 215 197 172
0.1212255135178566 1.7107940912246704 2.819854497909546 196 180 156
0.14456681907176971 1.6956790685653687 2.821970224380493 214 195 172
0.15942858159542084 1.706167459487915 2.816814661026001 145 122 102
0.13070048391819 1.6145920753479004 2.920466423034668 200 178 154
0.1686759889125824 1.6768293380737305 2.8314828872680664 178 156 135
0.17885473370552063 1.6846381425857544 2.824920415878296 149 127 103
0.20628969371318817 1.7879904508590698 2.7909278869628906 96 85 75
0.13881756365299225 1.5466495752334595 2.981605052947998 128 107 86
0.1380687803030014 1.4780058860778809 2.9971957206726074 117 95 76
0.21804557740688324 1.8095208406448364 2.7905471324920654 103 92 82
0.21992363035678864 1.6470266580581665 2.7590978145599365 174 154 129
0.22105950117111206 1.828165054321289 2.7971653938293457 103 99 97
0.19546739757061005 1.6185888051986694 2.8682010173797607 203 181 155
0.1598881185054779 1.5146933794021606 2.999671459197998 169 147 126
0.21074114739894867 1.6621538400650024 2.846308946609497 201 176 153
0.21890710294246674 1.6869210004806519 2.8255457878112793 140 117 93
0.1743411272764206 1.5447746515274048 2.983208417892456 212 190 162
0.1746959686279297 1.544294834136963 2.982790470123291 212 190 162
0.21481850743293762 1.6302661895751953 2.861020088195801 210 188 164
0.22840745747089386 1.6780418157577515 2.825866222381592 198 176 153
0.242708221077919 1.8233288526535034 2.8138318061828613 96 88 83
0.2541189193725586 1.7576394081115723 2.804387331008911 81 63 58
0.23249851167201996 1.6366275548934937 2.8591904640197754 129 106 82
0.19784300029277802 1.5350024700164795 2.9844043254852295 192 169 145
0.2090502679347992 1.543710470199585 2.986227035522461 112 90 72
0.25537553429603577 1.683144211769104 2.8381035327911377 193 173 147
0.26264652609825134 1.6966439485549927 2.824321746826172 125 100 79
0.2166927605867386 1.5493323802947998 2.9773943424224854 101 77 62
0.2166927605867386 1.5493323802947998 2.9773943424224854 101 77 62
0.26035600900650024 1.6646877527236938 2.8438732624053955 191 168 144
0.2621771991252899 1.5744894742965698 2.920311689376831 117 96 75
0.2621771991252899 1.5744894742965698 2.920311689376831 117 96 75
0.2701244652271271 1.5959148406982422 2.9086151123046875 192 169 151
0.2419348806142807 1.4803030490875244 3.009544610977173 149 127 110
0.29850098490715027 1.5960909128189087 2.914182186126709 191 169 146
0.31326472759246826 1.703810214996338 2.8821399211883545 114 96 77
0.31837233901023865 1.7191294431686401 2.8798396587371826 174 154 136
0.2886688709259033 1.5503123998641968 2.985395669937134 177 155 136
0.3191736340522766 1.6011685132980347 2.917555093765259 198 176 154
0.3191736340522766 1.6011685132980347 2.917555093765259 198 176 154
0.3350866436958313 1.7003159523010254 2.8773913383483887 171 153 131
0.29589441418647766 0.3604811131954193 2.842346429824829 231 221 194
0.29739683866500854 0.45029109716415405 2.8644533157348633 98 90 72
0.34918713569641113 1.7147202491760254 2.879164457321167 118 93 77
0.3531738519668579 1.4877028465270996 2.991973400115967 184 164 138
0.3821242153644562 1.6896839141845703 2.9149551391601562 164 142 125
0.3870357871055603 1.658278465270996 2.910855770111084 151 132 114
0.39320728182792664 1.7045948505401611 2.89483904838562 192 172 149
0.4046235680580139 1.7321784496307373 2.883680820465088 43 38 43
0.35413452982902527 0.4733005464076996 2.8800642490386963 201 193 178
0.360080361366272 0.43187078833580017 2.8617026805877686 248 241 224
0.40041807293891907 1.6761661767959595 2.9253463745117188 90 72 52
0.41820594668388367 1.7012604475021362 2.8892412185668945 118 100 78
0.4181787073612213 1.5875495672225952 2.978837490081787 95 76 63
0.4286169707775116 1.6422480344772339 2.960310935974121 68 54 48
0.4010690450668335 0.3675994873046875 2.8768417835235596 138 127 99
0.43501612544059753 1.6151392459869385 3.0037944316864014 97 77 68
0.4200601577758789 0.3770706057548523 2.8853225708007812 243 232 208
0.4200601577758789 0.3770706057548523 2.8853225708007812 243 232 208
0.4225117266178131 0.367344468832016 2.878835439682007 128 118 89
0.45666322112083435 1.6013394594192505 2.9951870441436768 199 184 156
0.4897101819515228 1.701425313949585 3.0196704864501953 118 98 81
0.47927233576774597 1.5908201932907104 3.0612070560455322 163 144 124
0.724993109703064 1.485965371131897 2.866800546646118 184 173 164
0.7879953384399414 1.5502761602401733 2.8508148193359375 98 90 89
0.8063634037971497 1.4321675300598145 2.8594818115234375 213 200 191
0.9826945662498474 1.5333198308944702 2.7514665126800537 163 156 154
0.9989546537399292 1.544800877571106 2.74554181098938 77 72 72
1.035461187362671 1.5016049146652222 2.724102020263672 203 189 187
1.0406745672225952 1.469429850578308 2.7420144081115723 201 186 179
1.046535611152649 1.4760303497314453 2.7250616550445557 136 123 121
1.0853283405303955 1.4494749307632446 2.7099051475524902 202 188 180
1.126253604888916 1.760736107826233 2.6364781856536865 30 46 65
1.1173818111419678 1.4985873699188232 2.706629514694214 170 159 156
1.1639748811721802 1.4911810159683228 2.700303316116333 216 205 195
1.2091833353042603 1.5143364667892456 2.6849005222320557 206 195 184
1.221621036529541 1.5728545188903809 2.667048692703247 199 192 187
1.2309643030166626 1.561254620552063 2.6606926918029785 205 195 185
1.3440479040145874 1.507643222808838 2.655003786087036 159 147 138
1.3997937440872192 1.5971733331680298 2.6003541946411133 204 194 182
1.429878830909729 1.7287458181381226 2.5479533672332764 130 123 117
1.4635374546051025 1.7174042463302612 2.50581955909729 189 179 172
1.5693681240081787 1.8086369037628174 2.482550859451294 213 201 196
1.6188268661499023 1.8549376726150513 2.409323215484619 190 177 177
1.6772977113723755 1.8383632898330688 2.3893611431121826 193 182 181
1.7035999298095703 1.8352351188659668 2.36706805229187 138 128 128
1.7323843240737915 1.8457931280136108 2.336714506149292 127 122 125
1.75925612449646 1.9707653522491455 2.4023404121398926 122 117 123
1.7693337202072144 1.681050419807434 2.417100667953491 211 199 193
1.7455178499221802 1.8563393354415894 2.2899844646453857 95 89 95
1.7895817756652832 1.8518308401107788 2.288496255874634 196 185 187
1.9349184036254883 1.7779048681259155 2.376093864440918 125 117 118
1.936885118484497 1.8135050535202026 2.3695523738861084 151 143 144
1.9516780376434326 1.8031800985336304 2.3775596618652344 168 157 158
1.9658726453781128 1.7854278087615967 2.395089864730835 179 168 171
2.339016914367676 1.317438006401062 2.9743261337280273 70 63 58
2.348177433013916 1.295111060142517 2.9614367485046387 184 178 167
2.200967788696289 1.652294397354126 2.1286721229553223 49 32 27
2.5512804985046387 1.2370800971984863 2.742945432662964 242 137 113
2.5512804985046387 1.2370800971984863 2.742945432662964 242 137 113
2.598278522491455 1.2388161420822144 2.727651596069336 248 136 97
2.3039162158966064 1.6116634607315063 2.1284115314483643 135 130 125
2.350277900695801 1.6416456699371338 2.1360585689544678 25 21 16
2.3881919384002686 1.6027172803878784 2.1044533252716064 28 23 21
2.423344135284424 1.5860748291015625 2.105867624282837 225 224 217
2.5019710063934326 2.0938775539398193 2.1818461418151855 4 6 5
2.5249152183532715 1.5964325666427612 2.115705966949463 207 203 196
2.635995388031006 1.5857701301574707 2.118513822555542 194 191 184
2.788109540939331 2.052117109298706 2.1495556831359863 39 57 70
2.814892292022705 1.505109429359436 2.1357619762420654 161 161 156
2.845999002456665 1.629111886024475 2.0956459045410156 129 128 126
2.8439130783081055 1.4757494926452637 1.7084871530532837 95 81 70
3.6308140754699707 1.011361002922058 2.334804058074951 225 218 201
2.88702392578125 1.4515808820724487 1.7223976850509644 48 42 48
2.87846040725708 1.465411901473999 1.7045847177505493 66 56 49
4.339958667755127 1.3039445877075195 2.9559671878814697 76 121 157
2.8610520362854004 1.7523986101150513 1.659995436668396 129 128 118
3.841982841491699 0.9890398383140564 2.472944736480713 217 213 195
3.701162099838257 0.9151440858840942 2.352297306060791 220 209 186
2.9598331451416016 1.4388377666473389 1.7153527736663818 101 106 131
3.711433172225952 0.9303734302520752 2.334044933319092 137 128 110
2.9725160598754883 1.4494763612747192 1.7037125825881958 104 108 136
2.965855598449707 1.4750908613204956 1.6906858682632446 182 180 175
3.7233164310455322 0.9618692994117737 2.317277431488037 250 246 243
3.728430986404419 0.9430385828018188 2.3182754516601562 251 249 245
2.894049882888794 1.744443655014038 1.6197963953018188 129 127 123
2.9772608280181885 1.4592279195785522 1.6912325620651245 94 103 122
3.737466335296631 0.9543071985244751 2.3117482662200928 95 86 94
3.754868984222412 0.9465693831443787 2.312030076980591 247 241 246
2.9695048332214355 1.504372000694275 1.6673638820648193 157 154 150
3.7560954093933105 0.9528476595878601 2.3011860847473145 92 79 74
3.7727842330932617 0.9462066292762756 2.306567907333374 165 155 141
2.9279985427856445 1.7293283939361572 1.6182600259780884 122 121 118
2.9937658309936523 1.5175538063049316 1.6606950759887695 143 143 145
3.076268434524536 1.421589970588684 1.708804726600647 93 116 147
2.9081780910491943 1.9873601198196411 1.5606168508529663 37 41 42
3.5004444122314453 1.4762622117996216 2.031672716140747 149 150 148
4.036482810974121 1.2745482921600342 2.4428184032440186 62 74 131
4.036482810974121 1.2745482921600342 2.4428184032440186 62 74 131
4.068476676940918 1.2764021158218384 2.4409284591674805 68 76 125
3.864915370941162 1.3374189138412476 2.2718048095703125 218 206 198
3.8441243171691895 1.3460862636566162 2.237805128097534 184 72 66
3.9089179039001465 1.3236820697784424 2.2706191539764404 65 15 14
3.9960708618164062 1.3122743368148804 2.3340349197387695 176 74 74
3.064413070678711 1.5405550003051758 1.6290947198867798 112 134 163
3.889918565750122 1.3357043266296387 2.2486014366149902 222 134 125
3.894779920578003 1.3422300815582275 2.2382137775421143 235 224 213
3.894779920578003 1.3422300815582275 2.2382137775421143 235 224 213
3.961427688598633 1.3108185529708862 2.270916700363159 186 124 110
3.922034502029419 1.3380029201507568 2.2390077114105225 226 166 165
4.049892425537109 1.2967344522476196 2.3212504386901855 217 214 201
3.99234938621521 1.3367992639541626 2.2577641010284424 44 38 27
3.934581756591797 1.3554693460464478 2.1909191608428955 189 107 98
3.902257204055786 1.3594285249710083 2.1530323028564453 190 65 65
4.079874038696289 1.322492241859436 2.273465156555176 219 218 207
4.0972580909729 1.3452101945877075 2.2438912391662598 223 220 207
4.0270609855651855 1.3394474983215332 2.189584255218506 90 105 89
4.121133804321289 1.2962397336959839 2.2550036907196045 161 150 138
4.121133804321289 1.2962397336959839 2.2550036907196045 161 150 138
4.208588123321533 1.2710593938827515 2.297166347503662 175 169 155
4.239121913909912 1.2696396112442017 2.3082375526428223 244 237 225
4.033437252044678 1.3576924800872803 2.1652681827545166 67 79 66
4.033437252044678 1.3576924800872803 2.1652681827545166 67 79 66
4.1660261154174805 1.287862777709961 2.252086877822876 245 243 227
3.4245314598083496 1.3937019109725952 1.7259644269943237 105 125 150
4.208650588989258 1.3264572620391846 2.234412908554077 139 129 120
2.248774528503418 0.040011391043663025 0.5542696118354797 77 82 96
8.504849433898926 3.1957008838653564 4.99849271774292 204 201 187
-1.4332233667373657 -4.768385410308838 2.7359018325805664 112 101 81
-0.641311764717102 -0.6609148979187012 2.586327314376831 133 106 93
-0.46710750460624695 1.6596510410308838 2.7629971504211426 191 179 163
-0.41935938596725464 1.6952428817749023 2.722675323486328 128 112 97
-0.31396278738975525 1.862653136253357 2.6310842037200928 117 95 82
-0.3695378303527832 -1.933729648590088 2.271134853363037 208 198 180
-0.37651512026786804 1.706352949142456 2.725442886352539 192 171 146
-0.35602477192878723 -1.91335129737854 2.2660508155822754 76 60 62
-0.32260560989379883 1.7919968366622925 2.6900463104248047 152 129 110
-0.39312097430229187 1.6901907920837402 2.767652750015259 174 150 126
-0.3173808753490448 -1.9456874132156372 2.2855076789855957 77 64 62
-0.1984904557466507 1.8593766689300537 2.610288381576538 181 158 135
-0.4734102189540863 1.5327584743499756 2.921013116836548 206 191 168
-0.3628915846347809 1.6347235441207886 2.828320026397705 81 67 62
-0.5124538540840149 1.5209064483642578 3.0624818801879883 174 156 130
-0.2355881631374359 1.6988279819488525 2.7515931129455566 110 91 76
-0.07455920428037643 0.01542553398758173 2.375405788421631 203 172 140
-0.46231168508529663 -4.537416934967041 2.4600846767425537 104 100 86
-0.1611165851354599 1.6821918487548828 2.809433698654175 98 80 65
0.0030128369107842445 1.8382740020751953 2.7466883659362793 168 144 119
-0.18260277807712555 -1.8902443647384644 2.5949580669403076 145 137 119
-0.14142942428588867 -1.9770821332931519 2.540287733078003 71 71 61
-0.14619208872318268 -2.021934986114502 2.554990530014038 200 190 166
-0.025972668081521988 1.663102149963379 2.8637564182281494 172 153 130
0.06985342502593994 1.7688260078430176 2.7415924072265625 165 142 122
-0.06432783603668213 1.5677629709243774 2.9480512142181396 184 172 157
0.0845760926604271 1.7915292978286743 2.7555489540100098 91 73 60
-0.011177974753081799 1.6533337831497192 2.9088168144226074 178 153 130
0.1298215091228485 1.7962936162948608 2.735867977142334 182 161 142
0.1878718137741089 1.8156300783157349 2.7541210651397705 34 37 41
0.1878718137741089 1.8156300783157349 2.7541210651397705 34 37 41
0.15260809659957886 1.6283200979232788 2.8373489379882812 124 102 86
0.22740153968334198 1.7273560762405396 2.743474006652832 168 150 128
0.22998332977294922 1.7016773223876953 2.7833664417266846 189 168 143
0.21867643296718597 1.588006615638733 2.8737480640411377 157 134 110
0.21867643296718597 1.588006615638733 2.8737480640411377 157 134 110
0.29398268461227417 1.7617847919464111 2.7840535640716553 123 109 95
0.3275459408760071 1.7525447607040405 2.83723521232605 166 149 128
0.22715121507644653 1.5061249732971191 2.9947469234466553 193 173 146
0.2577722668647766 1.5374912023544312 2.9809765815734863 105 83 71
0.2577722668647766 1.5374912023544312 2.9809765815734863 105 83 71
0.3473714292049408 1.7361714839935303 2.846726894378662 151 134 116
0.34734365344047546 1.7944598197937012 2.8547794818878174 127 113 98
0.3740251660346985 1.7188729047775269 2.8527424335479736 179 164 131
0.2944561541080475 1.4962869882583618 3.0021159648895264 207 183 159
0.3787339925765991 1.7096590995788574 2.8709824085235596 169 152 128
0.3674911558628082 1.6092973947525024 2.8984627723693848 162 142 117
0.396028995513916 1.5703068971633911 2.935441017150879 182 162 139
0.4416947066783905 1.6676560640335083 2.9408037662506104 157 147 119
0.43758055567741394 1.6022305488586426 2.9462172985076904 155 136 122
0.4367731809616089 1.5691190958023071 3.005845785140991 111 93 71
0.46747082471847534 1.7272015810012817 2.9737741947174072 108 90 79
1.66853666305542 1.9795640707015991 2.4208898544311523 21 36 49
1.7641830444335938 1.6820892095565796 2.3655898571014404 206 194 186
1.8384166955947876 1.8558002710342407 2.3338701725006104 145 137 140
1.888905644416809 1.9229693412780762 2.384037494659424 11 25 38
2.0102386474609375 1.8079352378845215 2.4647738933563232 120 109 112
2.4508235454559326 1.6394636631011963 2.1370849609375 129 120 116
2.860126256942749 1.5624744892120361 2.1423428058624268 186 185 177
2.853087902069092 1.4761959314346313 1.6790660619735718 141 137 129
2.8620009422302246 1.4926491975784302 1.668094277381897 148 143 136
2.8620009422302246 1.4926491975784302 1.668094277381897 148 143 136
2.8633718490600586 1.5201948881149292 1.6623401641845703 178 174 165
2.87233829498291 1.5144500732421875 1.664522409439087 134 130 119
2.867034912109375 1.5378210544586182 1.6583476066589355 157 152 145
2.9250099658966064 1.4921478033065796 1.6640340089797974 170 169 166
2.9499945640563965 1.5092977285385132 1.6573759317398071 93 101 115
3.0288734436035156 1.4426277875900269 1.6866930723190308 88 113 144
2.3290045261383057 0.16674485802650452 -0.025505701079964638 111 107 98
3.565342664718628 0.8626350164413452 2.1767730712890625 54 38 32
3.565342664718628 0.8626350164413452 2.1767730712890625 54 38 32
3.5768091678619385 0.8626241683959961 2.1792876720428467 236 224 207
3.6170172691345215 0.8660789132118225 2.1903042793273926 239 230 213
3.6158907413482666 0.8654223084449768 2.1877033710479736 239 230 213
3.6158907413482666 0.8654223084449768 2.1877033710479736 239 230 213
3.6221871376037598 0.8596027493476868 2.181697368621826 49 38 36
3.6214873790740967 0.8594086170196533 2.1800920963287354 49 38 36
3.601308822631836 0.8814173340797424 2.144364356994629 31 35 32
3.6222753524780273 0.918334424495697 2.146066665649414 169 159 148
3.662531614303589 1.0992704629898071 2.183589220046997 97 94 107
4.124698638916016 1.1566616296768188 2.6975343227386475 160 177 179
4.1326823234558105 1.088485836982727 2.6732075214385986 87 113 127
4.1328816413879395 1.1035923957824707 2.663116931915283 6 41 72
4.00526237487793 1.3103914260864258 2.487999677658081 64 79 129
4.6980156898498535 1.9176344871520996 3.2928385734558105 221 208 197
4.221433162689209 1.0432448387145996 2.596745491027832 205 192 165
4.09591007232666 1.3147913217544556 2.4919240474700928 68 69 117
3.9092037677764893 1.4052728414535522 2.2977099418640137 239 236 223
2.646437406539917 0.21271033585071564 0.34346047043800354 230 210 196
3.9032540321350098 1.421886920928955 2.288369655609131 187 71 84
4.2944111824035645 1.0330297946929932 2.6222431659698486 231 220 195
