ply
format ascii 1.0
element vertex 709
property float x
property float y
property float z
property uchar red
property uchar green
property uchar blue
end_header
-0.18956544995307922 1.7724097967147827 2.8092148303985596 132 110 89
-0.19790363311767578 1.6680576801300049 2.844897508621216 133 107 85
-0.19075006246566772 1.661571741104126 2.863737106323242 221 200 167
-0.17266598343849182 1.689473032951355 2.827974319458008 90 70 59
-0.17753402888774872 1.7366844415664673 2.855196475982666 170 149 125
-0.1263481080532074 1.8303120136260986 2.773283004760742 150 126 103
-0.16469430923461914 1.6670888662338257 2.8541834354400635 183 159 132
-0.08267246186733246 1.9063830375671387 2.713250160217285 187 166 141
0.21404477953910828 -1.3334147930145264 1.7581923007965088 167 115 103
-0.1189926490187645 1.7896286249160767 2.809256076812744 200 176 149
-0.14136044681072235 1.7220815420150757 2.870628833770752 144 127 104
0.22445859014987946 -1.3782929182052612 1.759690761566162 168 139 127
0.2371647208929062 -1.372037410736084 1.7346363067626953 112 94 83
-0.1314278393983841 1.7282756567001343 2.857456922531128 178 159 134
-0.15312694013118744 1.5990731716156006 2.9317469596862793 165 146 132
-0.05129135400056839 1.8679256439208984 2.740595817565918 201 176 152
0.23456630110740662 -1.3772202730178833 1.7830896377563477 87 80 70
-0.10962402075529099 1.6482702493667603 2.8966217041015625 220 204 171
-0.047071557492017746 1.8470003604888916 2.771617889404297 218 192 168
0.43017956614494324 -2.277008533477783 1.3642354011535645 132 124 105
-0.025536056607961655 1.8919459581375122 2.736841917037964 182 157 133
-0.1203387975692749 1.5188021659851074 2.9414796829223633 103 84 69
-0.07249166071414948 1.7068023681640625 2.853766441345215 217 199 169
-0.10904350876808167 1.5826464891433716 2.9359819889068604 176 167 156
-0.038055360317230225 1.80894935131073 2.8317601680755615 175 153 132
0.5364686250686646 -2.2397947311401367 1.1835933923721313 180 176 155
-0.03427222743630409 1.7029906511306763 2.8647613525390625 119 95 79
-0.04326679930090904 1.653263807296753 2.8818960189819336 105 83 69
0.5369470715522766 -2.287473678588867 1.19333815574646 134 130 119
-0.06097780540585518 1.625291109085083 2.9602627754211426 96 77 69
0.23795290291309357 -1.3719345331192017 1.9211182594299316 85 82 71
0.23795290291309357 -1.3719345331192017 1.9211182594299316 85 82 71
0.0030723793897777796 1.7240194082260132 2.8261466026306152 194 172 146
-0.018832169473171234 1.6669738292694092 2.8927721977233887 204 182 157
-0.015748053789138794 1.639005422592163 2.9369263648986816 214 198 166
0.550159215927124 -2.317931652069092 1.2149602174758911 194 189 174
0.08110455423593521 1.8519420623779297 2.759591817855835 96 83 76
0.08391974866390228 1.8431998491287231 2.7732272148132324 157 142 133
0.05636655166745186 1.7313798666000366 2.838383436203003 190 167 143
0.2654016315937042 -1.4526045322418213 1.9779658317565918 93 88 80
0.07654346525669098 1.6975271701812744 2.833144426345825 182 160 133
0.5112265944480896 -2.3900694847106934 1.3867650032043457 184 175 154
0.09961467981338501 1.7177869081497192 2.8167524337768555 133 106 85
0.1288275420665741 1.8558310270309448 2.768340826034546 38 46 56
0.11867576092481613 1.791467308998108 2.7923743724823 179 161 134
0.06418432295322418 1.6323472261428833 2.941166639328003 185 161 134
0.11684439331293106 1.7424122095108032 2.802668809890747 125 102 81
0.09521721303462982 1.6435739994049072 2.8544766902923584 207 182 159
0.11016517877578735 1.6963948011398315 2.820131778717041 134 110 92
0.10139574855566025 -0.05677742138504982 2.665398120880127 215 197 172
0.12137610465288162 1.7108418941497803 2.8199141025543213 196 180 156
0.14472493529319763 1.695721983909607 2.8220317363739014 214 195 172
0.15958233177661896 1.7061764001846313 2.8168981075286865 145 122 102
0.1308611035346985 1.614601492881775 2.9205424785614014 200 178 154
0.16883584856987 1.6768451929092407 2.8315582275390625 178 156 135
0.1790151447057724 1.6846394538879395 2.8250064849853516 149 127 103
0.20645709335803986 1.7880353927612305 2.7910068035125732 96 85 75
0.1389835923910141 1.5465986728668213 2.981712579727173 128 107 86
0.13824370503425598 1.4779908657073975 2.997272253036499 117 95 76
0.21814806759357452 1.8094671964645386 2.790661334991455 103 92 82
0.2198212742805481 1.646978497505188 2.758969306945801 174 154 129
0.22107894718647003 1.8281123638153076 2.797258138656616 103 99 97
0.19564299285411835 1.6186186075210571 2.8682634830474854 203 181 155
0.16005967557430267 1.5146414041519165 2.9997754096984863 169 147 126
0.21090945601463318 1.662150263786316 2.84639573097229 201 176 153
0.21907946467399597 1.6869651079177856 2.825606107711792 140 117 93
0.17451654374599457 1.5447205305099487 2.983322858810425 212 190 162
0.17486757040023804 1.5442419052124023 2.982898473739624 212 190 162
0.21499626338481903 1.630298376083374 2.861082077026367 210 188 164
0.2285829782485962 1.6780858039855957 2.825925588607788 198 176 153
0.24272768199443817 1.8232773542404175 2.813922882080078 96 88 83
0.25427040457725525 1.7576181888580322 2.804490566253662 81 63 58
0.2326764166355133 1.6366842985153198 2.8592417240142822 129 106 82
0.19801978766918182 1.5349464416503906 2.9845192432403564 192 169 145
0.20922791957855225 1.543653964996338 2.986341953277588 112 90 72
0.2555535137653351 1.68318510055542 2.838165760040283 193 173 147
0.26282620429992676 1.696684718132019 2.8243863582611084 125 100 79
0.2167440801858902 1.549395203590393 2.977349281311035 101 77 62
0.2167440801858902 1.549395203590393 2.977349281311035 101 77 62
0.26053833961486816 1.66472327709198 2.843937397003174 191 168 144
0.26235702633857727 1.574428915977478 2.920431137084961 117 96 75
0.26235702633857727 1.574428915977478 2.920431137084961 117 96 75
0.27031227946281433 1.5959327220916748 2.9086825847625732 192 169 151
0.24212537705898285 1.4802825450897217 3.0096232891082764 149 127 110
0.2984364926815033 1.596195936203003 2.914015293121338 191 169 146
0.3134492337703705 1.7037485837936401 2.8822741508483887 114 96 77
0.31848713755607605 1.719067096710205 2.8799498081207275 174 154 136
0.2887275516986847 1.5503723621368408 2.985355854034424 177 155 136
0.31936952471733093 1.6011724472045898 2.9176323413848877 198 176 154
0.31936952471733093 1.6011724472045898 2.9176323413848877 198 176 154
0.33524271845817566 1.7002521753311157 2.8775131702423096 171 153 131
0.2958928644657135 0.3604845702648163 2.842290163040161 231 221 194
0.2973943054676056 0.4502968490123749 2.8643972873687744 98 90 72
0.3493292033672333 1.714655876159668 2.8792824745178223 118 93 77
0.3533807694911957 1.4876389503479004 2.9920811653137207 184 164 138
0.38220736384391785 1.6897029876708984 2.9150092601776123 164 142 125
0.38723668456077576 1.6582114696502686 2.9109866619110107 151 132 114
0.3932982087135315 1.7045276165008545 2.8949403762817383 192 172 149
0.4047044813632965 1.7321107387542725 2.8837814331054688 43 38 43
0.3541313409805298 0.473306268453598 2.8800084590911865 201 193 178
0.3600776195526123 0.43187543749809265 2.8616461753845215 248 241 224
0.400516539812088 1.6760985851287842 2.9254469871520996 90 72 52
0.4183071255683899 1.7011914253234863 2.889345407485962 118 100 78
0.4182277023792267 1.5875123739242554 2.9789159297943115 95 76 63
0.4286614656448364 1.6422089338302612 2.960390567779541 68 54 48
0.40091031789779663 0.3675721287727356 2.8766775131225586 138 127 99
0.43508487939834595 1.6151014566421509 3.003876209259033 97 77 68
0.4199022352695465 0.3770437240600586 2.885160446166992 243 232 208
0.4199022352695465 0.3770437240600586 2.885160446166992 243 232 208
0.4223521053791046 0.367317259311676 2.878671646118164 128 118 89
0.45672768354415894 1.6013022661209106 2.995267391204834 199 184 156
0.48972639441490173 1.7013888359069824 3.0197415351867676 118 98 81
0.47927507758140564 1.5907881259918213 3.0612716674804688 163 144 124
0.7252153158187866 1.4860026836395264 2.866813898086548 184 173 164
0.7882552146911621 1.5503151416778564 2.850834846496582 98 90 89
0.8064841032028198 1.4321914911270142 2.8594608306884766 213 200 191
0.982719361782074 1.5333515405654907 2.751401901245117 163 156 154
0.9991257786750793 1.5448296070098877 2.745521306991577 77 72 72
1.0354421138763428 1.5016369819641113 2.7240233421325684 203 189 187
1.0406520366668701 1.469460368156433 2.741936445236206 201 186 179
1.0465167760849 1.476061463356018 2.7249839305877686 136 123 121
1.0853095054626465 1.4495049715042114 2.709827423095703 202 188 180
1.126281976699829 1.760692834854126 2.6365718841552734 30 46 65
1.117362141609192 1.498618721961975 2.7065505981445312 170 159 156
1.1639548540115356 1.4912117719650269 2.7002243995666504 216 205 195
1.2091625928878784 1.5143678188323975 2.6848204135894775 206 195 184
1.2215944528579712 1.5728883743286133 2.6669650077819824 199 192 187
1.2309354543685913 1.5612881183624268 2.6606082916259766 205 195 185
1.3440150022506714 1.5076735019683838 2.654921293258667 159 147 138
1.3997595310211182 1.5972076654434204 2.600266218185425 204 194 182
1.4300798177719116 1.728834867477417 2.547877311706543 130 123 117
1.4639078378677368 1.7176088094711304 2.5056967735290527 189 179 172
1.5695509910583496 1.8086812496185303 2.4824721813201904 213 201 196
1.6191767454147339 1.8550362586975098 2.4093048572540283 190 177 177
1.67739999294281 1.8384120464324951 2.3892598152160645 193 182 181
1.7037856578826904 1.8352851867675781 2.3669683933258057 138 128 128
1.732130765914917 1.8473275899887085 2.335395336151123 127 122 125
1.7593860626220703 1.970824956893921 2.4022951126098633 122 117 123
1.7693030834197998 1.6810885667800903 2.417001962661743 211 199 193
1.745707392692566 1.8564753532409668 2.28987979888916 95 89 95
1.7895334959030151 1.8518823385238647 2.288376808166504 196 185 187
1.935056447982788 1.7779496908187866 2.375981092453003 125 117 118
1.936815619468689 1.814970850944519 2.3684756755828857 151 143 144
1.9518545866012573 1.8032481670379639 2.377490520477295 168 157 158
1.9661012887954712 1.7854745388031006 2.39497447013855 179 168 171
2.3393280506134033 1.317584753036499 2.9741628170013428 70 63 58
2.3483026027679443 1.295133113861084 2.9613535404205322 184 178 167
2.200927495956421 1.652334451675415 2.128553867340088 49 32 27
2.551467180252075 1.2371540069580078 2.7428030967712402 242 137 113
2.551467180252075 1.2371540069580078 2.7428030967712402 242 137 113
2.598475694656372 1.2388911247253418 2.727501630783081 248 136 97
2.3038759231567383 1.611699104309082 2.128298044204712 135 130 125
2.350236654281616 1.6416815519332886 2.135946273803711 25 21 16
2.388150215148926 1.6027514934539795 2.104339838027954 28 23 21
2.42330265045166 1.5861073732376099 2.1057558059692383 225 224 217
2.5025017261505127 2.0940167903900146 2.18159556388855 4 6 5
2.5248727798461914 1.5964630842208862 2.115598201751709 207 203 196
2.6359519958496094 1.5857975482940674 2.1184098720550537 194 191 184
2.7878262996673584 2.052222728729248 2.14985728263855 39 57 70
2.814849615097046 1.5051283836364746 2.135667324066162 161 161 156
2.845952272415161 1.6291377544403076 2.0955452919006348 129 128 126
2.8438539505004883 1.4757791757583618 1.7083406448364258 95 81 70
3.6308493614196777 1.0113781690597534 2.3348634243011475 225 218 201
2.88696551322937 1.4516067504882812 1.7222566604614258 48 42 48
2.8784008026123047 1.4654399156570435 1.7044397592544556 66 56 49
4.3399271965026855 1.3039319515228271 2.9559402465820312 76 121 157
2.8609795570373535 1.7524545192718506 1.6598237752914429 129 128 118
3.8420166969299316 0.9890591502189636 2.472994327545166 217 213 195
3.7011280059814453 0.9151227474212646 2.352238893508911 220 209 186
2.9597740173339844 1.438860535621643 1.7152149677276611 101 106 131
3.7113983631134033 0.9303522109985352 2.3339860439300537 137 128 110
2.9724557399749756 1.4494999647140503 1.703573226928711 104 108 136
2.9657936096191406 1.4751172065734863 1.6905430555343628 182 180 175
3.723280668258667 0.9618487358093262 2.317218542098999 250 246 243
3.728395700454712 0.943017303943634 2.318216562271118 251 249 245
2.8939743041992188 1.744500756263733 1.619618535041809 129 127 123
2.9771993160247803 1.4592525959014893 1.6910910606384277 94 103 122
3.7374305725097656 0.9542860984802246 2.3116893768310547 95 86 94
3.754833221435547 0.9465477466583252 2.311971426010132 247 241 246
2.969440460205078 1.5044015645980835 1.6672159433364868 157 154 150
3.756059169769287 0.9528260827064514 2.3011271953582764 92 79 74
3.7727482318878174 0.9461846351623535 2.306509494781494 165 155 141
2.9279229640960693 1.729382872581482 1.6180857419967651 122 121 118
2.9937002658843994 1.517583966255188 1.6605467796325684 143 143 145
3.0762078762054443 1.4216078519821167 1.7086727619171143 93 116 147
2.9080326557159424 1.9874498844146729 1.5604746341705322 37 41 42
3.5002734661102295 1.478331446647644 2.0303232669830322 149 150 148
4.037652015686035 1.2744511365890503 2.4424030780792236 62 74 131
4.037652015686035 1.2744511365890503 2.4424030780792236 62 74 131
4.068820953369141 1.2762178182601929 2.440725088119507 68 76 125
3.8665409088134766 1.337397575378418 2.270902156829834 218 206 198
3.844086170196533 1.3460774421691895 2.237740993499756 184 72 66
3.9088783264160156 1.3236714601516724 2.2705609798431396 65 15 14
3.9960248470306396 1.312262773513794 2.3339931964874268 176 74 74
3.0643436908721924 1.5405861139297485 1.6289442777633667 112 134 163
3.8901638984680176 1.3360092639923096 2.248246192932129 222 134 125
3.894735097885132 1.3422201871871948 2.2381591796875 235 224 213
3.894735097885132 1.3422201871871948 2.2381591796875 235 224 213
3.961381196975708 1.310806393623352 2.2708687782287598 186 124 110
3.921989917755127 1.3379924297332764 2.2389533519744873 226 166 165
4.049844741821289 1.296721339225769 2.321211338043213 217 214 201
3.992300510406494 1.336787462234497 2.257718324661255 44 38 27
3.9347853660583496 1.3570783138275146 2.189861536026001 189 107 98
3.902216672897339 1.3594189882278442 2.1529643535614014 190 65 65
4.079820156097412 1.3224791288375854 2.2734317779541016 219 218 207
4.097203731536865 1.3451967239379883 2.243854522705078 223 220 207
4.027010440826416 1.3394347429275513 2.1895360946655273 90 105 89
4.121078968048096 1.2962243556976318 2.2549705505371094 161 150 138
4.121078968048096 1.2962243556976318 2.2549705505371094 161 150 138
4.2085347175598145 1.2710436582565308 2.297139883041382 175 169 155
4.239068031311035 1.2696233987808228 2.308213472366333 244 237 225
4.033382892608643 1.3576802015304565 2.165224075317383 67 79 66
4.033624649047852 1.3596422672271729 2.164024829864502 67 79 66
4.165972709655762 1.2878460884094238 2.252051830291748 245 243 227
3.4244682788848877 1.3937063217163086 1.7258546352386475 105 125 150
4.20881986618042 1.3279370069503784 2.2334790229797363 139 129 120
2.2486777305603027 0.03985821083188057 0.5574620962142944 77 82 96
8.504820823669434 3.1956946849823 4.998512268066406 204 201 187
-1.4339298009872437 -4.768589496612549 2.734705924987793 112 101 81
-0.6422653198242188 -0.660923957824707 2.5853943824768066 133 106 93
-0.46712085604667664 1.6600291728973389 2.762735605239868 191 179 163
-0.4195800721645355 1.6954774856567383 2.7222936153411865 128 112 97
-0.31417691707611084 1.8630874156951904 2.6305344104766846 117 95 82
-0.3704942464828491 -1.9342304468154907 2.2696919441223145 208 198 180
-0.3767056167125702 1.7066130638122559 2.725080728530884 192 171 146
-0.3569890260696411 -1.913853645324707 2.26460337638855 76 60 62
-0.32280293107032776 1.7922377586364746 2.689659595489502 152 129 110
-0.3948870897293091 1.6901969909667969 2.7660887241363525 174 150 126
-0.3183281123638153 -1.94618821144104 2.2841007709503174 77 64 62
-0.19875288009643555 1.8593239784240723 2.6100008487701416 181 158 135
-0.47347596287727356 1.5325508117675781 2.921030282974243 206 191 168
-0.362896591424942 1.6347075700759888 2.8282783031463623 81 67 62
-0.5123451352119446 1.5211513042449951 3.062450885772705 174 156 130
-0.23577341437339783 1.6988909244537354 2.751342296600342 110 91 76
-0.07565449923276901 0.01547697652131319 2.3744144439697266 203 172 140
-0.46333226561546326 -4.537773609161377 2.458503484725952 104 100 86
-0.16126230359077454 1.68216073513031 2.8092758655548096 98 80 65
0.0029048167634755373 1.8385077714920044 2.746384620666504 168 144 119
-0.18332038819789886 -1.8907299041748047 2.593999147415161 145 137 119
-0.1421813815832138 -1.9775688648223877 2.5392696857452393 71 71 61
-0.14693208038806915 -2.02241849899292 2.553983211517334 200 190 166
-0.02766674943268299 1.6630022525787354 2.8625271320343018 172 153 130
0.06974431127309799 1.768974781036377 2.741342306137085 165 142 122
-0.06426534056663513 1.5676054954528809 2.9481260776519775 184 172 157
0.08447530120611191 1.7916263341903687 2.7553484439849854 91 73 60
-0.011136221699416637 1.65286386013031 2.9090394973754883 178 153 130
0.12971147894859314 1.7962822914123535 2.7357065677642822 182 161 142
0.18777143955230713 1.815569281578064 2.7539989948272705 34 37 41
0.18777143955230713 1.815569281578064 2.7539989948272705 34 37 41
0.152554452419281 1.6282132863998413 2.837303876876831 124 102 86
0.22730039060115814 1.7271957397460938 2.7434046268463135 168 150 128
0.22989946603775024 1.7016469240188599 2.7832448482513428 189 168 143
0.21687886118888855 1.5879490375518799 2.8725388050079346 157 134 110
0.21687886118888855 1.5879490375518799 2.8725388050079346 157 134 110
0.29390090703964233 1.7616726160049438 2.783991813659668 123 109 95
0.3274896442890167 1.7524112462997437 2.837196111679077 166 149 128
0.2272908240556717 1.5058876276016235 2.9948885440826416 193 173 146
0.2579101026058197 1.537217617034912 2.981132745742798 105 83 71
0.2579101026058197 1.537217617034912 2.981132745742798 105 83 71
0.3473185896873474 1.7360877990722656 2.8466639518737793 151 134 116
0.34729525446891785 1.7943048477172852 2.85476016998291 127 113 98
0.37397801876068115 1.718709111213684 2.8527257442474365 179 164 131
0.29460766911506653 1.496029019355774 3.0022687911987305 207 183 159
0.3786928951740265 1.709565281867981 2.8709347248077393 169 152 128
0.3657625913619995 1.6091426610946655 2.89743709564209 162 142 117
0.39620035886764526 1.5700907707214355 2.9355790615081787 182 162 139
0.44186827540397644 1.6674038171768188 2.9409637451171875 157 147 119
0.437755823135376 1.6019843816757202 2.946371555328369 155 136 122
0.43696582317352295 1.5688756704330444 3.0060083866119385 111 93 71
0.46765366196632385 1.726962924003601 2.973936080932617 108 90 79
1.6684539318084717 1.980180025100708 2.4203367233276367 21 36 49
1.7642934322357178 1.6819584369659424 2.365595817565918 206 194 186
1.8383738994598389 1.8559972047805786 2.333630323410034 145 137 140
1.8891286849975586 1.922503113746643 2.3843209743499756 11 25 38
2.0103540420532227 1.812536597251892 2.4618992805480957 120 109 112
2.451033592224121 1.6401108503341675 2.1365480422973633 129 120 116
2.8604378700256348 1.5631790161132812 2.141739845275879 186 185 177
2.853466033935547 1.4774278402328491 1.6779154539108276 141 137 129
2.8623809814453125 1.4938935041427612 1.6669130325317383 148 143 136
2.8623809814453125 1.4938935041427612 1.6669130325317383 148 143 136
2.863753318786621 1.5214499235153198 1.6611272096633911 178 174 165
2.8727190494537354 1.5157021284103394 1.6633156538009644 134 130 119
2.867417097091675 1.5390832424163818 1.6571130752563477 157 152 145
2.9253897666931152 1.4933955669403076 1.6628342866897583 170 169 166
2.9503753185272217 1.5105547904968262 1.6561468839645386 93 101 115
3.0292465686798096 1.4438470602035522 1.6855442523956299 88 113 144
2.3410885334014893 0.12356414645910263 0.3400470018386841 111 107 98
3.565664291381836 0.8627153635025024 2.1764845848083496 54 38 32
3.565664291381836 0.8627153635025024 2.1764845848083496 54 38 32
3.5771279335021973 0.8629022836685181 2.1789391040802 236 224 207
3.618433952331543 0.8675816059112549 2.1896371841430664 239 230 213
3.617309808731079 0.8669490814208984 2.1870291233062744 239 230 213
3.617309808731079 0.8669490814208984 2.1870291233062744 239 230 213
3.623617172241211 0.8613027334213257 2.180968999862671 49 38 36
3.6229186058044434 0.8611556887626648 2.179349899291992 49 38 36
3.6016790866851807 0.8815141320228577 2.1440367698669434 31 35 32
3.622641086578369 0.9186288714408875 2.1456704139709473 169 159 148
3.6628975868225098 1.0994223356246948 2.183228015899658 97 94 107
4.126379013061523 1.1564854383468628 2.696599245071411 160 177 179
4.134383201599121 1.0883121490478516 2.6722426414489746 87 113 127
4.13459587097168 1.1034184694290161 2.6621413230895996 6 41 72
4.005916595458984 1.310102105140686 2.4876692295074463 64 79 129
4.69850492477417 1.9178574085235596 3.2923641204833984 221 208 197
4.223269939422607 1.0430858135223389 2.5956056118011475 205 192 165
4.096561908721924 1.314505696296692 2.491572380065918 68 69 117
3.9099111557006836 1.404845952987671 2.2974209785461426 239 236 223
2.6458401679992676 0.2128799557685852 0.34669288992881775 230 210 196
3.903963804244995 1.421491026878357 2.2880663871765137 187 71 84
4.296259880065918 1.032880187034607 2.6210548877716064 231 220 195
3.929722547531128 1.4176369905471802 2.268563747406006 218 133 123
3.331791639328003 1.49720299243927 1.6503891944885254 170 186 201
3.9009244441986084 1.429442048072815 2.2168333530426025 230 217 204
3.9471404552459717 1.4295217990875244 2.2619681358337402 243 159 144
3.954141855239868 1.4226888418197632 2.2597806453704834 175 71 67
3.954141855239868 1.4226888418197632 2.2597806453704834 175 71 67
4.01564884185791 1.4002280235290527 2.304037570953369 70 61 54
3.9421446323394775 1.439496636390686 2.235532522201538 237 206 192
4.039134502410889 1.4487472772598267 2.2549195289611816 219 215 205
2.2818496227264404 0.14552293717861176 0.18395303189754486 206 201 188
4.35316801071167 -1.292365550994873 1.9053573608398438 81 72 54
4.305761814117432 -0.06274578720331192 2.039403200149536 135 128 100
4.280050754547119 -0.2237226516008377 1.9707629680633545 146 137 116
4.2378411293029785 -0.6633427143096924 1.8598158359527588 208 201 183
4.204284191131592 -0.4133783280849457 1.86811101436615 226 218 203
4.243667125701904 -0.7054323554039001 1.8469133377075195 209 205 184
4.253537654876709 -0.5579370260238647 1.865045189857483 154 144 130
4.205574035644531 -0.39222660660743713 1.8484182357788086 104 96 82
4.2087788581848145 -0.41767990589141846 1.8432872295379639 229 222 206
4.251224040985107 -0.6901983618736267 1.8285480737686157 161 158 141
4.220265865325928 -1.1811573505401611 1.716863989830017 71 62 46
4.343801975250244 0.05706221982836723 2.0147855281829834 205 204 179
4.350824356079102 0.04087754711508751 2.014310359954834 132 127 101
4.370100498199463 -0.008323651738464832 2.008167266845703 171 163 135
4.354463577270508 -0.19287918508052826 1.9488462209701538 227 219 207
4.382226943969727 -0.05005393177270889 1.9930298328399658 226 220 204
4.264575481414795 -0.4940904378890991 1.8183218240737915 230 226 215
4.247661590576172 -0.4279038906097412 1.8134264945983887 218 213 198
4.349307537078857 -0.3338179290294647 1.8909022808074951 190 185 169
4.293851375579834 -0.4337892234325409 1.817968487739563 234 228 216
4.293851375579834 -0.4337892234325409 1.817968487739563 234 228 216
4.360359191894531 -0.37947311997413635 1.875285267829895 168 161 145
4.324057102203369 -0.5021821856498718 1.8146220445632935 234 228 217
4.193737983703613 -1.1197576522827148 1.595741629600525 165 159 131
4.34969425201416 -0.5329104661941528 1.8095135688781738 114 105 92
4.34969425201416 -0.5329104661941528 1.8095135688781738 114 105 92
4.375224590301514 -0.43824198842048645 1.8224830627441406 192 188 171
4.059442043304443 -1.0225971937179565 1.4517678022384644 167 160 131
4.448814392089844 -0.249435156583786 1.8408803939819336 77 74 62
4.410037994384766 -0.9360051155090332 1.7007336616516113 203 197 179
4.454148292541504 0.017986319959163666 1.8799457550048828 249 241 231
4.480903625488281 0.038859155029058456 1.8983359336853027 101 98 71
4.420073986053467 -0.8064046502113342 1.7155808210372925 130 127 104
4.435830593109131 -0.2882888615131378 1.8099206686019897 245 238 220
4.424077987670898 -0.9335305094718933 1.691358208656311 139 134 112
4.515803337097168 1.4729111194610596 2.0791311264038086 218 214 205
-1.7060178518295288 2.7146997451782227 5.117648601531982 153 131 107
-1.285152792930603 2.431356906890869 4.941776275634766 104 83 68
-1.2351723909378052 2.3706393241882324 4.931282997131348 192 171 148
-0.5542157888412476 0.769237220287323 3.9319887161254883 139 127 108
-1.061948299407959 2.704223394393921 4.8116888999938965 129 113 88
-1.1805506944656372 2.9003379344940186 5.055983066558838 39 43 53
-0.9150905609130859 2.2931573390960693 4.792575836181641 163 144 124
-0.8504343032836914 2.4372217655181885 4.80558443069458 148 132 109
-0.8182097673416138 2.487203598022461 4.838625907897949 51 45 35
0.4654305875301361 1.9789690971374512 3.7224206924438477 125 111 111
0.6000081896781921 1.8462047576904297 3.67182993888855 144 127 119
0.7784040570259094 1.783287763595581 3.710017681121826 120 104 90
1.5307339429855347 2.3583264350891113 3.015352487564087 183 172 170
2.2990481853485107 1.8014190196990967 2.439622640609741 197 191 178
2.372607707977295 1.8009796142578125 2.421510696411133 217 212 200
2.4977076053619385 1.8060938119888306 2.427013874053955 186 183 171
2.494445323944092 1.3487217426300049 3.0098111629486084 221 146 122
2.5373456478118896 1.7132939100265503 2.396261692047119 188 185 173
2.574984550476074 1.6576943397521973 2.158609390258789 179 172 166
2.581977367401123 1.3274856805801392 2.9711315631866455 237 130 103
2.581977367401123 1.3274856805801392 2.9711315631866455 237 130 103
2.8082315921783447 1.6257750988006592 2.3244619369506836 161 156 150
2.943779230117798 1.949333906173706 1.8020774126052856 120 120 116
2.9743738174438477 1.5868868827819824 1.740835428237915 91 96 111
3.589228868484497 0.9178659319877625 2.1880054473876953 253 247 248
3.601834535598755 0.9273226857185364 2.1834819316864014 86 76 74
3.6246259212493896 0.8635300993919373 2.213089942932129 27 19 25
3.610743999481201 0.9173089265823364 2.180330514907837 248 246 238
3.6163504123687744 0.9011601209640503 2.174024820327759 30 32 28
3.638523817062378 0.8931393623352051 2.163551092147827 37 35 28
3.985692024230957 1.0966928005218506 2.729938507080078 219 202 196
3.9995522499084473 1.0881727933883667 2.717237710952759 68 62 67
2.996378183364868 0.5537698864936829 0.5306234955787659 171 176 185
4.091513633728027 1.1538665294647217 2.6209585666656494 49 121 156
3.8720815181732178 1.3535107374191284 2.2719647884368896 191 74 66
4.09720516204834 1.173505425453186 2.6182854175567627 170 189 193
4.120172023773193 1.1590510606765747 2.5912036895751953 121 136 131
3.937673568725586 1.3325377702713013 2.2550318241119385 235 168 164
4.154007434844971 1.208267092704773 2.5804004669189453 209 208 205
3.9040796756744385 1.3672385215759277 2.1826889514923096 190 75 70
3.201018810272217 0.351025253534317 0.1679248809814453 76 58 51
4.032018184661865 1.2969744205474854 2.364056348800659 230 203 192
3.9238946437835693 1.3714969158172607 2.1935877799987793 177 58 55
4.182601451873779 1.1053329706192017 2.553352117538452 29 35 35
3.9553422927856445 1.3522790670394897 2.224243402481079 240 199 184
3.9542975425720215 1.3319358825683594 2.210566520690918 163 51 42
3.5404515266418457 1.5193262100219727 1.5827680826187134 99 118 144
3.9680638313293457 1.3529831171035767 2.208864688873291 254 178 163
3.980426549911499 1.34160578250885 2.202068567276001 182 78 71
4.0110554695129395 1.3341084718704224 2.218916416168213 109 114 105
4.068014621734619 1.3220465183258057 2.2489566802978516 81 75 65
4.068014621734619 1.3220465183258057 2.2489566802978516 81 75 65
4.066702365875244 1.3302239179611206 2.2379980087280273 218 222 209
4.296812534332275 1.2721383571624756 2.413536310195923 226 219 208
4.179650783538818 1.2985200881958008 2.2405316829681396 145 127 119
4.22114896774292 1.2671277523040771 2.230140447616577 249 247 235
4.395166397094727 -1.1802433729171753 2.048346996307373 138 131 101
4.29716157913208 1.2410207986831665 2.243920087814331 255 251 237
4.211752891540527 -0.24923306703567505 1.9293087720870972 157 146 126
4.211752891540527 -0.24923306703567505 1.9293087720870972 157 146 126
4.203282356262207 -0.3972255289554596 1.8394087553024292 101 92 72
4.209131240844727 -0.406678169965744 1.8380334377288818 87 77 59
4.355586051940918 0.03285037353634834 2.0158798694610596 144 137 109
4.401637554168701 -0.028150558471679688 1.9819985628128052 232 224 211
4.4027862548828125 -0.026858272030949593 1.9793328046798706 233 225 212
4.3360915184021 -0.5567416548728943 1.8212530612945557 216 213 197
4.423158168792725 -0.4855305850505829 1.8081125020980835 218 210 197
4.430327892303467 -0.5012394189834595 1.8264293670654297 215 204 193
4.33518648147583 2.3095176219940186 2.0023224353790283 77 78 63
4.3187031745910645 -0.5684031248092651 1.6218159198760986 191 186 168
4.4549760818481445 -0.7401792407035828 1.7756774425506592 198 191 173
4.394443035125732 -0.6621274352073669 1.7108474969863892 192 185 165
4.369387149810791 2.461986541748047 2.010756731033325 74 69 54
4.300290584564209 1.5466161966323853 1.8511204719543457 98 89 83
3.322995901107788 0.3670862317085266 0.27638137340545654 23 25 20
4.397441864013672 1.5067646503448486 1.9162063598632812 219 212 206
4.342967510223389 1.5389105081558228 1.8336195945739746 182 171 168
4.297938823699951 -1.3107410669326782 1.3554489612579346 187 179 158
4.2857584953308105 -1.3348525762557983 1.3284320831298828 100 98 98
4.2857584953308105 -1.3348525762557983 1.3284320831298828 100 98 98
4.313776016235352 -1.3105942010879517 1.355328917503357 96 88 89
4.275283336639404 -1.4415550231933594 1.269173264503479 239 236 207
4.277403354644775 -1.6402571201324463 1.1669445037841797 175 169 141
3.1009674072265625 0.22126781940460205 0.18314263224601746 167 168 162
4.518837928771973 -2.2060770988464355 1.351125717163086 174 167 142
4.560473442077637 2.034759044647217 1.8633253574371338 121 117 92
4.055435657501221 -1.5097888708114624 0.9099735617637634 228 224 204
3.4162192344665527 -0.1289927363395691 0.3369668424129486 70 68 66
4.2699785232543945 -1.2833105325698853 1.1306774616241455 133 130 109
4.218864440917969 -1.2419049739837646 1.0737017393112183 124 124 99
4.084865570068359 -1.4723221063613892 0.8712448477745056 153 148 130
3.7281811237335205 -0.6765021681785583 0.6003978848457336 214 207 183
4.760709762573242 1.048609733581543 1.8099925518035889 187 180 154
4.748627662658691 1.0657404661178589 1.7986927032470703 79 73 59
4.740608215332031 1.0789110660552979 1.793583869934082 137 132 107
4.768829345703125 1.103851318359375 1.8138618469238281 65 59 41
4.5362868309021 -1.1814358234405518 1.3266452550888062 103 98 80
4.799472808837891 1.6422837972640991 1.8572583198547363 60 54 45
4.823655605316162 1.6475858688354492 1.8498033285140991 77 70 49
4.805401802062988 -0.20710110664367676 1.5641149282455444 180 169 153
5.450847148895264 1.9411497116088867 2.3129215240478516 149 143 124
4.808382511138916 -0.22167018055915833 1.5635137557983398 199 195 167
6.7642822265625 1.7924957275390625 3.2588536739349365 49 49 31
3.184537887573242 0.33885252475738525 0.26135316491127014 177 170 150
4.824476718902588 -0.17230086028575897 1.57598876953125 75 72 55
4.811318874359131 -0.20111481845378876 1.569310188293457 63 49 46
6.667283058166504 1.8539592027664185 3.157367467880249 36 36 18
7.203749179840088 1.4659336805343628 3.4010636806488037 31 30 14
7.139534950256348 1.5410341024398804 3.3570964336395264 31 30 14
6.729236602783203 1.8464868068695068 3.0972540378570557 44 41 31
4.951314926147461 -0.8682887554168701 1.4298008680343628 194 189 168
2.529362916946411 1.5402127504348755 2.135594367980957 216 209 197
2.5701420307159424 1.4987422227859497 2.1256537437438965 220 211 198
2.89652156829834 1.4635907411575317 1.677736520767212 180 173 163
3.31488037109375 1.4127763509750366 1.5891306400299072 174 185 196
3.3039700984954834 1.2050637006759644 2.5655694007873535 212 207 193
3.5327789783477783 0.8726956844329834 2.123850107192993 219 207 179
3.516005754470825 1.4441100358963013 1.5196564197540283 98 117 138
3.5708250999450684 0.8471817970275879 2.1463027000427246 224 211 191
3.5933163166046143 0.8670082092285156 2.1129682064056396 62 66 65
3.6027321815490723 0.8827102780342102 2.1172194480895996 54 57 56
3.6451916694641113 1.0578874349594116 2.096766948699951 189 191 193
3.6459288597106934 1.0478782653808594 2.1002440452575684 82 82 141
3.814112663269043 1.165764570236206 2.447319507598877 82 81 81
3.6587440967559814 1.3554188013076782 1.5857940912246704 171 180 192
3.8360745906829834 1.1736987829208374 2.4365391731262207 204 199 188
3.9125285148620605 1.1060140132904053 2.5454652309417725 78 71 65
3.925690174102783 1.0785820484161377 2.5547170639038086 207 200 186
3.933591365814209 1.1270040273666382 2.515883684158325 221 215 201
3.732792615890503 1.7350516319274902 1.5338822603225708 141 143 142
3.977813959121704 1.0479964017868042 2.5778493881225586 222 207 196
3.8725483417510986 1.2837138175964355 2.127108573913574 246 242 228
3.974562406539917 1.1018725633621216 2.511152982711792 64 62 59
3.907348155975342 1.2562611103057861 2.1634199619293213 130 43 49
3.997063398361206 1.0983425378799438 2.490318536758423 89 139 162
3.9975876808166504 1.0978612899780273 2.490612268447876 89 139 162
3.9975876808166504 1.0978612899780273 2.490612268447876 89 139 162
3.9017817974090576 1.2996493577957153 2.085801601409912 251 159 150
3.9164867401123047 1.26353120803833 2.140368700027466 128 42 40
3.921353578567505 1.3054146766662598 2.0834147930145264 190 63 62
3.9777979850769043 1.2378379106521606 2.1800451278686523 169 81 72
4.063038349151611 1.162671446800232 2.460954427719116 212 205 193
3.9835257530212402 1.316327452659607 2.0793955326080322 222 211 202
4.053684234619141 1.18800950050354 2.302145004272461 77 70 125
4.053684234619141 1.18800950050354 2.302145004272461 77 70 125
4.069053649902344 1.1888211965560913 2.3123390674591064 213 201 212
3.8579623699188232 1.8257542848587036 1.5943042039871216 91 99 110
4.168562412261963 1.0644069910049438 2.436025381088257 39 43 44
4.143796443939209 1.2272896766662598 2.1514735221862793 253 249 237
4.111432075500488 1.6451666355133057 1.892357349395752 100 89 82
4.283614158630371 1.1993058919906616 2.168478488922119 255 252 235
4.281230449676514 1.2241156101226807 2.155674934387207 145 134 121
4.25954532623291 -0.43344321846961975 1.8501110076904297 219 212 199
4.282705783843994 -0.37855100631713867 1.9047361612319946 112 102 82
4.271667003631592 -0.41923749446868896 1.7926766872406006 235 227 215
4.3665313720703125 -0.06592217087745667 2.0060317516326904 191 181 165
4.377087116241455 -0.06317103654146194 1.996875524520874 231 221 205
4.32320499420166 -0.4671141505241394 1.8222088813781738 201 194 175
4.1393656730651855 -2.268324136734009 1.0879913568496704 143 138 117
4.347737789154053 -0.46246373653411865 1.8117073774337769 116 107 95
4.308867931365967 -0.5809147953987122 1.617622971534729 218 216 201
4.421645164489746 -0.026959164068102837 1.8907393217086792 214 206 193
4.4329142570495605 -0.16206952929496765 1.876813530921936 232 228 214
4.30754280090332 1.4972870349884033 1.791032314300537 163 151 146
4.460707664489746 -0.25535205006599426 1.8578314781188965 82 76 62
4.361023426055908 2.2339835166931152 1.8450689315795898 26 24 18
4.4306416511535645 -0.8545746803283691 1.6606298685073853 123 114 95
4.3045549392700195 -1.2027500867843628 1.2585453987121582 109 93 85
4.310612201690674 -1.208760142326355 1.251440405845642 242 236 203
4.474350452423096 1.3987334966659546 1.863722562789917 189 186 171
4.350369453430176 -1.1018471717834473 1.2499433755874634 220 217 190
4.482406139373779 1.4961657524108887 1.7909265756607056 107 98 84
4.336801528930664 -1.1987301111221313 1.1677767038345337 50 47 42
3.8121869564056396 0.018429581075906754 0.11104287207126617 84 82 79
3.836442708969116 0.14202335476875305 0.15920990705490112 108 107 88
4.417346000671387 -1.0513954162597656 1.166367530822754 242 237 215
4.452873706817627 -1.008583664894104 1.1797682046890259 238 230 211
4.458647727966309 -1.000618815422058 1.1792041063308716 221 216 192
4.541234493255615 2.285978317260742 1.5866620540618896 129 122 96
4.761740684509277 1.0942001342773438 1.797476053237915 69 62 42
4.781103610992432 1.0432347059249878 1.7797725200653076 103 97 74
4.8232293128967285 1.6227842569351196 1.8330990076065063 66 57 46
5.504602432250977 2.0543324947357178 2.3311405181884766 139 133 109
6.546848297119141 0.8960769176483154 3.5199973583221436 45 46 31
6.498643398284912 0.9980875253677368 3.4724647998809814 71 74 49
6.548067092895508 0.9326021075248718 3.4851279258728027 118 120 102
6.634791851043701 0.6944109797477722 3.5202293395996094 74 76 64
6.628870487213135 0.9440943598747253 3.508962392807007 117 122 108
6.599370956420898 1.0176551342010498 3.4479496479034424 99 103 94
6.377761363983154 -1.410154104232788 2.8878285884857178 88 89 66
6.478058338165283 -0.21748550236225128 3.1222822666168213 50 51 46
6.454117298126221 1.4758055210113525 3.2273693084716797 111 107 81
6.374646186828613 -1.1171422004699707 2.8103744983673096 29 31 29
6.372790813446045 -1.0130419731140137 2.814209461212158 129 134 123
4.73391056060791 -0.7225524187088013 1.2013105154037476 151 147 122
6.369959831237793 -1.142533540725708 2.755505084991455 139 143 131
4.744398593902588 -0.7178616523742676 1.200589895248413 199 197 172
6.702933311462402 0.2948468029499054 3.289881706237793 26 27 19
6.381750583648682 -1.1400082111358643 2.7422497272491455 87 93 82
6.42218542098999 -1.4692010879516602 2.717099905014038 29 31 26
4.762266635894775 -0.7305324077606201 1.1970596313476562 202 200 174
6.77565336227417 0.025853639468550682 3.1108906269073486 44 45 34
6.77565336227417 0.025853637605905533 3.1108906269073486 44 45 34
6.630544662475586 -1.5388540029525757 2.588376045227051 95 97 79
5.052585601806641 2.158822774887085 1.519768476486206 115 110 92
5.1367669105529785 2.1519575119018555 1.5663700103759766 113 107 83
5.596846580505371 1.136651873588562 1.7538013458251953 158 153 126
5.296004295349121 2.0377843379974365 1.5853419303894043 110 102 85
5.1708245277404785 -0.7212075591087341 1.1289923191070557 108 99 78
5.612026214599609 1.1177608966827393 1.7485201358795166 77 64 45
5.0507893562316895 2.1117775440216064 1.3888031244277954 61 55 41
4.541632652282715 0.16805586218833923 0.792059600353241 157 155 126
5.213873863220215 -0.7209265232086182 1.1187901496887207 133 129 105
5.754910469055176 0.9764668345451355 1.739068865776062 117 109 92
5.506115913391113 -0.15830081701278687 1.3746081590652466 177 174 149
5.78125524520874 0.8771497011184692 1.7166407108306885 103 94 72
5.310853481292725 2.0597281455993652 1.4666985273361206 53 46 42
5.278745174407959 2.05886173248291 1.4341740608215332 125 117 102
5.2791337966918945 2.0591726303100586 1.4343613386154175 126 118 102
5.706049919128418 0.7128197550773621 1.5326217412948608 154 139 127
6.052427291870117 1.8050369024276733 1.8876674175262451 27 18 25
6.052427291870117 1.8050369024276733 1.8876674175262451 27 18 25
2.924243450164795 1.0648322105407715 2.363563060760498 155 144 128
2.9839491844177246 1.5774283409118652 3.7285068035125732 217 209 193
3.614959478378296 0.8149313926696777 1.9441572427749634 71 73 72
3.6087229251861572 0.7879981994628906 1.9721344709396362 226 212 183
3.617648124694824 0.8459300398826599 1.953187108039856 255 253 248
3.632544755935669 0.7927308082580566 1.9775980710983276 83 73 61
3.6583783626556396 1.0923484563827515 2.0099246501922607 113 112 113
3.6576521396636963 0.8427878618240356 1.9678350687026978 125 115 100
3.6660821437835693 1.0084097385406494 1.9890239238739014 180 177 172
3.8363535404205322 1.405354619026184 1.5580601692199707 114 126 139
3.8340299129486084 1.3358250856399536 1.9849220514297485 225 217 203
3.843266248703003 1.2519912719726562 2.1041030883789062 222 206 191
3.831650972366333 1.160237193107605 2.347221612930298 224 219 202
3.8883721828460693 1.4053912162780762 1.8974525928497314 147 143 132
3.898249626159668 1.297397255897522 2.042590618133545 255 205 191
3.898939847946167 1.2963707447052002 2.0407931804656982 255 206 192
3.9315950870513916 1.2729065418243408 2.0737547874450684 243 195 178
3.9397196769714355 1.230486512184143 2.1237106323242188 181 122 104
3.946408748626709 1.0448089838027954 2.489997386932373 210 199 187
3.9513862133026123 1.1002295017242432 2.4903149604797363 196 194 180
3.961465358734131 1.223763346672058 2.1400299072265625 221 162 142
3.978652238845825 1.1875207424163818 2.2882959842681885 91 113 155
3.978652238845825 1.1875207424163818 2.2882959842681885 91 113 155
3.9768259525299072 1.0518100261688232 2.4908554553985596 91 67 69
3.99052095413208 1.0409959554672241 2.529960870742798 222 206 191
4.001553058624268 1.0670673847198486 2.4705920219421387 118 106 100
4.005158424377441 1.0400567054748535 2.531007766723633 96 86 88
4.012412071228027 1.0809639692306519 2.4456310272216797 67 71 80
4.0163493156433105 1.27092707157135 2.080925226211548 74 98 75
4.039658069610596 1.2489815950393677 2.1403722763061523 131 74 70
4.055503845214844 1.3107388019561768 2.158350706100464 238 232 218
4.103127479553223 1.1818151473999023 3.053218364715576 213 206 189
4.116584777832031 0.9682844281196594 2.3585994243621826 63 61 61
4.123246192932129 0.989669680595398 2.3976335525512695 54 56 53
4.160415172576904 1.2449445724487305 2.125171184539795 170 148 134
4.170215129852295 1.219318151473999 2.1542601585388184 255 251 237
4.203464031219482 0.93902587890625 2.392146110534668 214 198 170
4.251664638519287 0.914730966091156 2.4183788299560547 206 191 173
4.224437236785889 1.2420480251312256 2.102588653564453 151 138 124
4.2331085205078125 1.2209961414337158 2.0681285858154297 151 141 127
4.2353997230529785 -0.2880009114742279 1.8777692317962646 205 194 174
4.261149883270264 -0.39384979009628296 1.8113012313842773 114 101 80
4.332187652587891 1.4906725883483887 1.7702025175094604 178 164 161
4.365982532501221 1.4397311210632324 1.8099561929702759 225 219 206
4.358490467071533 1.4716155529022217 1.752708077430725 218 207 198
4.454395294189453 2.3711843490600586 1.9580241441726685 32 27 21
4.422667503356934 1.4881784915924072 1.772658109664917 115 97 93
4.354085922241211 -1.6015111207962036 1.2162798643112183 251 244 225
4.352352142333984 -1.6970081329345703 1.2464476823806763 252 247 230
4.396146774291992 -1.1806119680404663 1.3232731819152832 182 178 148
4.396146774291992 -1.1806119680404663 1.3232731819152832 182 178 148
4.471855163574219 1.3809846639633179 1.8016760349273682 194 189 172
4.524333477020264 1.5197175741195679 1.7733416557312012 139 132 113
4.428400993347168 0.0965111181139946 0.4027114808559418 144 136 110
4.741749286651611 2.088151693344116 1.9337892532348633 136 127 102
4.419741153717041 0.18743734061717987 0.1979919672012329 157 137 136
4.706875324249268 1.0366027355194092 1.7032499313354492 157 149 120
4.713157653808594 1.0068634748458862 1.7133259773254395 201 195 164
4.720776557922363 1.0401911735534668 1.7064597606658936 101 92 69
4.697658061981201 -0.18481303751468658 1.506966233253479 87 64 64
4.7064361572265625 -0.17068512737751007 1.5095248222351074 182 178 145
4.61160135269165 -1.9902689456939697 1.000216007232666 230 222 208
4.890466213226318 0.4630381166934967 1.8158422708511353 110 113 97
4.8646135330200195 0.4355549216270447 1.7201019525527954 100 100 86
5.03656005859375 0.437126100063324 1.6985340118408203 81 85 69
4.82803201675415 -0.026276646181941032 1.4626952409744263 44 33 18
6.090577125549316 -1.8322762250900269 3.4739737510681152 54 61 67
4.851858615875244 -0.2541419267654419 1.0738555192947388 194 193 177
4.839529514312744 -0.8214392066001892 1.3644511699676514 129 119 102
4.848606586456299 -0.8562270998954773 1.3454619646072388 116 105 95
6.730782985687256 -3.069279909133911 4.142858028411865 204 197 174
4.8534255027771 -0.8420758843421936 1.3454426527023315 207 202 180
6.170236110687256 -1.109725832939148 3.425745964050293 110 114 113
6.201477527618408 -1.8237247467041016 3.342219591140747 135 138 139
4.476942539215088 0.2588293254375458 0.6395644545555115 196 187 153
6.192437648773193 -1.0696516036987305 3.3513002395629883 95 99 98
6.25607967376709 -1.08681321144104 3.3607428073883057 102 106 105
4.361880779266357 0.1658702790737152 0.15484030544757843 225 216 202
6.273641109466553 -1.0146007537841797 3.314995288848877 72 75 73
4.4054036140441895 0.3039807081222534 0.4469316899776459 80 93 95
4.636888027191162 -0.0884537622332573 0.6340084075927734 179 173 146
5.415308475494385 1.6633374691009521 1.9527769088745117 87 89 78
4.547160625457764 0.11597837507724762 0.392562597990036 182 179 145
4.524985313415527 0.16966870427131653 0.13976913690567017 33 35 25
5.315221309661865 -1.3048512935638428 1.3342176675796509 199 193 164
4.886968612670898 -0.6182605028152466 0.850555419921875 115 104 89
5.350292205810547 -0.8437292575836182 1.2929184436798096 206 202 171
5.345059871673584 1.9463155269622803 1.5659629106521606 124 116 94
5.38225793838501 0.9789825677871704 1.4804890155792236 207 200 169
5.3766069412231445 1.002214789390564 1.4708845615386963 160 153 123
5.45754337310791 -0.14587239921092987 1.3468395471572876 122 110 91
5.464256286621094 -0.17230753600597382 1.3472278118133545 203 196 167
5.460587501525879 -0.1527077704668045 1.344321370124817 87 70 61
5.460587501525879 -0.1527077704668045 1.344321370124817 87 70 61
5.457571506500244 0.8688870072364807 1.4464333057403564 161 152 126
5.469527244567871 0.8722180128097534 1.4445713758468628 140 130 113
5.471826553344727 0.8629646301269531 1.4442235231399536 148 138 119
5.46729040145874 0.878967821598053 1.4413299560546875 80 71 49
5.477932453155518 0.8710415363311768 1.4398438930511475 163 154 128
4.7820143699646 0.5054662823677063 0.4822475016117096 152 140 115
4.606548309326172 0.523357629776001 0.34977585077285767 72 60 44
5.804741382598877 1.3320231437683105 1.6200034618377686 32 16 16
4.638529300689697 0.5023731589317322 0.31376713514328003 104 97 77
4.668035507202148 0.2874763309955597 0.2366558015346527 71 63 57
5.665675163269043 1.534635305404663 1.4815850257873535 33 30 18
6.01328706741333 -0.19308578968048096 1.5523486137390137 15 10 9
5.63880729675293 1.5773696899414062 1.4496479034423828 117 114 92
5.794969081878662 -0.5603583455085754 1.3193868398666382 29 31 19
5.785298824310303 -0.5495140552520752 1.308176875114441 28 29 16
5.773983955383301 -1.1833614110946655 1.2066105604171753 199 194 164
5.782310485839844 -0.6849504709243774 1.2667369842529297 23 24 23
6.040679931640625 -0.882058322429657 1.4281017780303955 75 76 70
5.799223899841309 -1.170786738395691 1.1979174613952637 102 96 73
5.441694259643555 1.8921531438827515 1.2791247367858887 145 140 132
6.3270344734191895 -0.4260520040988922 1.6884187459945679 39 46 20
6.059095859527588 -0.8989453315734863 1.416426420211792 117 125 115
5.840129375457764 1.155439019203186 1.4896775484085083 23 12 17
4.940332889556885 0.49404478073120117 0.7401297092437744 12 13 5
4.929440975189209 0.31833264231681824 0.637775182723999 19 21 17
5.889571666717529 0.8240614533424377 1.4813568592071533 164 166 152
5.903812408447266 0.7930246591567993 1.4858604669570923 10 11 11
5.8092570304870605 1.4859381914138794 1.4808094501495361 159 124 116
5.8092570304870605 1.4859381914138794 1.4808094501495361 159 124 116
5.834657669067383 1.4693387746810913 1.4660722017288208 159 122 114
5.834657669067383 1.4693387746810913 1.4660722017288208 159 122 114
4.8354692459106445 -0.20605820417404175 0.5035033822059631 178 177 149
5.841536521911621 1.4669307470321655 1.4511747360229492 46 36 30
5.841536521911621 1.4669307470321655 1.4511747360229492 46 36 30
5.68181037902832 0.775452196598053 1.2313915491104126 7 6 7
6.261599540710449 -0.18952204287052155 1.537909984588623 122 130 111
4.682198524475098 0.27296319603919983 0.377670019865036 108 111 95
6.035655498504639 0.9681141972541809 1.5219413042068481 12 15 13
